ply
format ascii 1.0
element vertex 691
property double x
property double y
property double z
property uchar red
property uchar green
property uchar blue
end_header
-1.3536087528239804 0.4507851526642230 0.9562461780710536 142 119 52
-1.4489887257295329 0.0207278673535733 1.2170221332579145 52 45 19
-1.3575155650458914 -0.0070321285118564 1.1721789373255043 65 69 36
-1.1928888172174648 -0.0053136924674074 1.1322859758261679 123 107 45
-1.0877946317833593 -0.0146900468323859 1.1313322231661704 129 107 60
-0.7399372860439398 0.5488752182976855 1.1653111968854677 140 118 61
-0.8951471122186809 -0.0122800568638485 1.4384540023771328 154 143 89
-0.8984822136943826 -0.0752277010032175 1.3122461771782983 209 198 72
-1.3723152594487280 -0.3246370644104579 1.1349991848010326 177 182 152
-1.1278561571011607 0.0888596222478663 1.0999907662329866 144 124 71
-1.2056243281562582 -0.2793975102843281 1.0405657824483014 136 112 64
-1.3286380729031060 -0.2488305868536632 1.1116990652698571 149 137 85
-1.4366761916953323 0.3195908078440483 1.1631397426589254 151 137 98
-1.2309147994185401 0.0618520889195448 1.1130340057190209 149 136 92
-1.1765207385699745 0.3626981399436572 1.0645529262148350 164 145 77
-1.2405832623639030 0.4849900770549661 1.1121378650573981 171 159 83
-1.0278957318073974 0.4118286946012734 1.0558350005084125 213 198 113
-1.3367408479283924 0.5296556101724876 0.9632141863785718 138 107 40
-0.8628934149203326 0.7495873142050435 0.8063541792883250 102 82 84
-1.2669234267167964 0.5950257303202295 1.1381392786468953 97 93 81
-0.8048832198327608 0.7069128072306095 0.8949962742761387 135 110 103
-0.7803771005897363 0.6759341672180996 0.8223845966292991 139 125 114
-1.1719876995955623 -0.8529287010880942 1.2798340073596055 153 156 137
-0.8723522030591558 -0.2188832220337054 1.2707420904581979 198 176 116
-1.1599170856945284 0.3892535932881809 1.0692956302134116 160 138 88
-0.9863402591529385 0.3871126667466974 1.0606698331801401 215 200 115
-0.9262685861082998 -0.1280005518598382 1.5501472072589841 75 70 67
-1.3804923554703270 0.4948000326292424 0.9385764116349277 235 238 207
-0.8820111153611564 -0.1027201534396268 1.2705730592093887 166 135 80
-1.5052799161916710 0.0100638143968878 1.2465274528294317 158 154 116
-1.2246034488369086 0.0097005282172844 1.1339085309769061 198 182 97
-1.2971617409059031 0.5915320192815430 1.2005314732173591 61 58 41
-1.1890655446484688 0.1023383737401564 1.0931506777339692 142 121 76
-1.0312306133678477 0.5685526810911635 1.0735929524192009 210 196 123
-1.3760577627242916 0.0589569252980964 1.0857238629484351 173 159 114
-1.3334333563153895 0.2797591764040237 1.1341814762813824 123 99 61
-1.4221907771352607 0.6059156034956178 0.9113360022663082 23 22 20
-0.9418395830649383 0.4130876575244491 1.0951989076996018 176 160 101
-0.8410733278395857 0.1462340550807414 1.4909603323996856 129 110 77
-1.1480381545717380 -0.7618511804684673 0.9167664910558602 135 135 125
-0.7709676605040658 0.3504788282231665 1.3213623460140529 154 147 93
-1.1531635325645464 -0.8341950720279372 1.2716669898991646 183 185 164
-1.1668855559933569 -0.6909196871327214 1.0737309247787648 125 128 109
-1.0046118013219487 -0.6083264619858095 1.1182182029505883 154 158 143
-1.0602710263892279 -0.1183429445155108 1.0985544951421746 172 148 74
-0.9385565693365403 -0.5715436795200310 1.1214207208490801 153 159 147
-0.7679588488058138 0.3587744800595982 1.3220585088626258 216 207 132
-1.2595598499351268 0.7708232978453546 0.7106255490415572 164 163 159
-1.2716125521060064 -0.3135373906131892 1.0774795243768189 137 136 72
-0.8011152017802814 0.3565491355706345 1.2198960038530089 185 177 130
-1.1414512671306558 0.4083486040697951 1.0614529927101977 142 124 58
-0.7591098197995402 0.3661647737437965 1.2871096002045659 224 212 130
-1.2384400243432396 -0.2775726206708438 1.0528580467793569 162 141 94
-1.3477535905329459 0.4448511575616865 0.9394156649971920 138 123 84
-0.8787897557463706 -0.3320783438060445 1.4658898138111607 90 74 41
-1.4171007376098692 -0.2515596728501932 1.1604290266869139 114 126 102
-0.8640728356315411 -0.2911554729113417 1.4075540878653841 82 57 17
-1.3473220136421036 0.4526455801137874 0.9632169436541256 145 117 67
-1.3323375112204427 0.4431813156543680 0.9107825933920151 78 73 44
-1.2659332089408926 0.4682494053410717 1.1242053986686567 133 123 61
-0.7433088104381188 0.3900295922469503 1.3362790129738793 163 154 115
-1.3403055500927847 0.4569448175189624 0.9569009229133202 152 122 62
-1.1563957831280798 -0.2315363244781806 1.0502675131364474 128 101 54
-1.1118367742669100 0.4279658992354025 1.0534265086758889 201 186 101
-1.2532869431583249 -0.2128622981130587 1.0860230205664512 163 138 98
-0.7385122213391725 0.4028891377215871 1.3383986530176684 163 154 95
-0.8688836451834692 0.7496164384643551 0.7972765124284192 215 193 172
-1.0478929193541506 -0.1965092420778830 1.0631627490484763 251 239 167
-0.9419672070353574 0.4143134790668712 1.0862496401831769 209 189 136
-1.3444976217330893 -0.3627965275592426 1.0612177078846099 99 106 90
-1.3375830049223878 0.4842184416953325 0.9460558687875757 153 124 58
-1.1196415249658485 0.4665891401582121 1.0746391788089256 147 128 70
-0.8047934579403948 0.4106526041327781 1.1575828086839106 242 230 148
-1.2706296718095837 -0.2644312138830366 1.0607397969025560 184 168 91
-0.9530932768569733 0.4368277511864760 1.0653618922772823 188 174 99
-0.7415545006301285 0.4250281709082511 1.2373984474843551 170 156 93
-0.7415545006301285 0.4250281709082511 1.2373984474843551 170 156 93
-1.3355963742075034 0.5146087089015408 0.9572249130786461 176 146 76
-0.8282367924392118 0.4296179499180972 1.1277180126889350 172 158 95
-1.2948351016801816 -0.1219713911010047 1.1304953640386064 127 121 69
-0.9323933306591072 0.4405617758706559 1.0609750083476659 164 146 74
-1.0527854073452176 0.4704493598946459 1.0514485881245295 178 161 83
-0.8692642893388749 -0.2471539824762549 1.1927823934235899 239 239 109
-0.9213162326879515 0.4474058828398948 1.0751851595338573 176 160 82
-1.0584914523380269 0.4822289719864896 1.0517510942945123 155 137 63
-1.0527475512877684 0.4813121130058455 1.0488619909876449 220 202 126
-1.5030040628717929 -0.0533327993921635 1.3328991475689154 153 149 111
-1.1558450771956510 -0.1138939760343644 1.0759256636081431 227 208 139
-0.8764881264192115 -0.1150357764092095 1.3616915422960463 152 127 63
-1.0528993504388580 0.4854533658119191 1.0496965927358559 214 197 119
-1.1016031863189317 -0.1961804641032087 1.0697406367335407 165 144 77
-1.1835481909648999 -0.1078341600929334 1.0974687920796022 209 189 128
-1.1192550430703307 -0.0855948291685428 1.1024308105107687 170 147 79
-1.3260463485603016 0.5459991247092947 0.9803413740070069 114 93 64
-0.7147917596615848 0.4639021219469870 1.2909442180158459 121 108 53
-0.7439100737872320 0.4518592012180799 1.1945968429193166 168 159 82
-1.1417245531918034 -0.1084988250364781 1.1006364037725860 153 130 63
-1.2137413821505021 0.5552949796110034 1.1302621341124579 202 193 150
-1.3331414988910251 0.5453706655942929 0.9073572959533857 117 122 92
-1.0114419171417430 0.5025629161223804 1.0717247932239755 149 125 63
-0.9189587982999116 -0.1207408935200831 1.2217779670033673 208 187 124
-1.1771157733546467 -0.0903437757845219 1.1012714406533552 132 111 54
-1.0065169633550446 0.5069735895573574 1.0718684621033092 134 113 48
-1.3002108062216027 -0.0528230177341457 1.1601187868517628 225 219 187
-0.7124522255554803 0.4788055139783353 1.2684951211623932 150 140 89
-1.0754459208518350 -0.0964974960953845 1.0905056939944140 179 160 68
-1.2099487563169880 -0.0561964012566425 1.1099447299043235 154 136 74
-1.3172684880562611 0.5535501810111575 0.9064232239862625 86 90 55
-1.0603384762385732 -0.0937332011071484 1.1054562941247215 215 192 116
-0.8642241468541646 -0.1976947447830233 1.3009887681681682 201 175 101
-1.3016069047402037 -0.0451333941363123 1.1654201070781964 43 34 1
-1.3215611772865830 0.5709392329801078 0.9623208573350638 133 110 30
-0.8737509685577527 -0.1129380353852347 1.2992697484961857 167 143 79
-1.3202442027864245 0.5675628010459316 0.9121262327412244 179 182 135
-1.3161625385789149 0.5678296484469010 0.9106157093002183 215 217 168
-0.7644909626430364 0.4869727046709458 1.1445908187305300 226 217 124
-1.0577262608604243 -0.0814292052042366 1.1013335380491556 231 209 123
-1.0388545154914692 -0.0838557479952612 1.1105803924795212 222 203 126
-0.7233900795815179 0.4880065724408558 1.1770564963408059 167 156 77
-0.9031796377300815 0.5119681780039883 1.0730564931709639 249 234 151
-1.0303468501237798 0.5428305010136469 1.0608930019109417 196 179 110
-1.2997202903848153 -0.0490538622314129 1.1525096408121118 197 192 160
-1.2829936196751042 0.6004806436896720 1.0227842144439205 133 131 90
-0.7975503303352779 0.4979230207993730 1.1144687080797260 155 143 85
-0.6966120109580841 0.5021439496430855 1.2334164887220851 158 142 93
-0.7172306445014981 0.4986723754371961 1.1908202865089057 159 146 78
-1.2077172605433912 -0.0368821448580973 1.1276742163364331 58 35 3
-1.1829106609371671 -0.0319673130874634 1.1148650989376891 94 75 17
-1.2864174044212060 -0.0843301181719827 1.1396065458856603 127 115 65
-0.7894465638168366 0.5203733462107786 1.1165195959179910 160 146 81
-0.8722138133883632 -0.1216890582097685 1.3298717120642467 202 180 94
-1.3514288779279107 0.6081814189972924 0.8592542193273871 63 62 58
-1.2221053405010642 -0.0169388780397263 1.1140303739909543 240 232 160
-1.2805156030277440 0.6066013507946247 0.9245068227319327 130 115 56
-1.1277078047171163 -0.0891082360598144 1.1016125062226003 200 175 109
-1.0909553859205086 -0.0239674958522971 1.1273454364905611 229 210 142
-1.2623977092969956 0.6111309560334004 0.9474272176079633 174 172 97
-1.3360872206567331 0.6140381222060077 0.8618083868169575 69 68 63
-1.0073059211711461 -0.0236613564206654 1.1714922111563628 224 204 133
-1.4958020167232289 0.0309579500871611 1.1721942144271114 72 66 40
-0.8573763310943430 0.5436959621043282 1.0777676631636304 210 198 116
-1.2041010269810342 0.0029294954180071 1.1330963054495407 140 126 55
-0.7331388408676760 0.5295149473890517 1.1467538839776461 167 148 80
-0.7333760382178932 0.5298423032099036 1.1472660810284685 167 148 80
-1.4803689790458574 0.0391455911766981 1.1474965008767155 136 131 102
-1.3410864350330198 0.6197892074471008 0.8458194282269137 31 26 22
-1.5155918613710633 -0.0299707194656577 1.3019245984049523 75 75 47
-1.0322597976717440 -0.0143091935674685 1.1556632676297141 121 95 46
-0.7338314794839923 0.5338836723168549 1.1476954921488722 216 197 129
-0.9665764378141128 -0.0171410166960990 1.2474849138631277 117 92 38
-0.9790462547575510 -0.0161369273204179 1.1795203842862376 125 107 31
-1.3415952707217786 0.6231899868825697 0.8477981359701955 112 111 81
-1.0111999356624550 0.5985112336292541 1.1062614962892687 168 159 100
-0.8855623486172277 -0.0227184345163440 1.3473221237084612 250 239 175
-0.8921145933578687 0.5582712191042479 1.0682675357335314 243 231 131
-0.9417320655479581 -0.0164127837723051 1.2523711867413392 138 116 58
-1.0029794852007494 -0.0098566900489874 1.1642214804966458 182 167 84
-0.8838793974143800 -0.0301477276978543 1.3781137564095967 255 243 191
-0.9773490346995964 0.5905740948021682 1.0822859102452993 164 155 100
-0.9059189561752474 -0.0849529719652791 1.4216957373800574 151 134 65
-1.3239470165457368 0.6256210976881778 0.8486937025418120 136 133 102
-0.7910137876266382 0.5451422698635281 1.0999575436675098 167 152 83
-0.9798004445896938 0.5900284609599691 1.0726809240448429 77 72 42
-0.8617607956314757 0.5617967796762656 1.0847764204646391 216 200 122
-0.8848125089497131 0.5723366258272560 1.0779266665265437 169 151 87
-1.4462940495332031 0.0471312730290655 1.1132488757270937 144 136 100
-1.5097108714765064 0.0558190540396602 1.1265287037710101 123 125 114
-0.7193299155921108 0.5724667922662791 1.2345600515080331 100 89 43
-1.4053935577926999 0.0441693705105358 1.0882300691938038 217 213 116
-0.9166611165394467 0.5896175550107580 1.0824179036074919 188 173 92
-1.1070198302803904 0.0099973902891905 1.1308582467401125 146 132 57
-0.7408160926804247 0.5799089592159618 1.1851392518332482 117 104 87
-1.0281566022987487 -0.0563810652875733 1.1553271566748027 188 162 103
-1.3991014455240509 0.0791701773463247 1.0684437580339299 205 185 135
-1.2595518589378933 -0.0280546700023132 1.1244276348601001 120 108 70
-1.0759015672955135 0.0402405915453088 1.1194547962464090 208 192 115
-0.7616478856556805 0.5843034536718080 1.1526644986343182 58 44 31
-1.4430608703487069 0.0913137607959013 1.0749240521414165 163 152 106
-1.0294996905673339 -0.0471951285989312 1.1576055296058061 139 113 52
-1.4263062973161216 0.0942690513623273 1.0632284642858758 143 130 88
-0.7507857689252075 0.6036545210495613 0.9679549686139911 114 81 74
-1.0511556968186548 0.0116478177737792 1.1348316785307544 117 98 30
-1.3388577268401451 0.0001435614164209 1.1622619935429284 122 120 81
-1.3511409338672415 0.1054475793545748 1.0686226470711546 135 119 96
-1.1826632396271601 0.0833587985996092 1.0956446730247333 198 184 113
-1.2570080346633838 0.0937853244431054 1.0869345293539063 173 158 93
-1.3739363994007678 0.1107471589354877 1.0638622242807323 51 42 25
-1.1400431971105958 0.0808525140703163 1.1044229106118300 149 129 76
-1.2065882758450157 0.0904708076007835 1.0939663898967775 216 200 138
-1.2617359632707954 0.1022941145433312 1.0832576601746648 152 134 68
-1.4697806805829148 0.1339942762046376 1.0906370433266397 237 226 170
-1.0638739901858676 -0.0229143319892990 1.1453960429001027 166 146 77
-1.0162189884943607 0.0099261094534145 1.1564645461695884 124 104 35
-1.3000482320372373 0.1126211315778119 1.0794506952031397 140 124 64
-0.8567428576251310 0.0635247020005737 1.3432758227648032 140 110 46
-1.4902425457087036 0.0335270091393420 1.1515147237099534 118 110 87
-1.0347764385157070 0.0151674688192117 1.1659813665572616 197 178 119
-1.3326120697607835 0.1299052387328582 1.0738000748798671 231 215 156
-1.3358109371247691 0.1315720668526755 1.0732209783181497 183 159 99
-1.0604245385307174 -0.0138480338690110 1.1394144079835977 134 115 38
-1.2126122524859930 0.1139482904148785 1.0833674399655309 183 169 106
-1.0255232656112105 0.0925505089095326 1.1370702365089409 190 174 123
-1.5043751836760433 0.0426774655967617 1.1481797036679990 60 53 34
-1.0427848481977735 0.0200121568260486 1.1536136829458870 158 140 76
-1.0078941287051890 -0.0132881496123432 1.1575921365384758 135 118 46
-0.8951367455689745 -0.0126482396848468 1.4532709090059921 93 83 30
-1.0581294044181699 0.7179875503564939 0.7330398422664519 145 116 112
-1.4218386499677302 0.0440870262314045 1.0939669445443723 60 51 18
-1.3708736182337056 0.0384464866291107 1.1020938936445741 69 65 36
-1.0738483691195864 0.1220119464175951 1.1028441413307712 123 109 64
-1.0653513961128840 0.1241744704429472 1.1096942822678797 139 116 72
-1.4832804253761069 0.0813126506670380 1.1081251368789931 77 66 36
-1.0558095353228625 0.1226944342607463 1.1028674745215838 196 175 128
-1.0554181822603148 0.1278939855213132 1.1066798677694283 198 178 128
-1.5246847840746978 0.0587782136540310 1.1271908441229688 100 97 88
-1.2045666001109621 0.1696518957564943 1.0669814622114318 176 164 90
-1.5293200933205433 0.1126877036454140 1.0946141821235296 56 45 27
-1.2637699109427063 0.1842539027105418 1.0748568746540799 229 215 150
-0.8522287678270611 0.0569473852563466 1.4525818210481558 72 53 20
-0.9824410504845951 0.0611210753537246 1.1587467695602212 211 197 124
-1.2546537175816155 0.0976903102622160 1.0837255149197482 144 126 60
-0.8727721271844648 0.7377171778066475 0.8037950934707271 119 113 113
-1.3335054291031521 0.2172091295879165 1.0698158797503790 169 158 92
-1.1554301564143545 0.0861517189024769 1.1012244035532623 146 128 80
-1.1952947448798221 0.1980324240042068 1.0757539768960016 140 120 69
-1.1468760021763515 0.1915289961682350 1.0612591840171810 159 144 75
-1.1950724372776809 0.2040090402645910 1.0789236291436484 133 113 62
-0.8940289817082548 0.1661348810459355 1.1919292614632988 221 208 138
-0.8963007250233900 0.7368485689911439 0.7737204499359384 61 35 34
-1.1487003750005571 0.0955825765913350 1.0977399071907430 143 129 84
-1.1741873152292448 0.2114467804368360 1.0745641916653339 175 162 110
-1.1973321768104204 0.1090628226129046 1.0943731970416575 123 102 57
-1.3111061168904006 0.2403335946695598 1.0811692245958089 198 173 109
-1.0637281503696667 0.0373040663749664 1.1378468706867071 140 111 51
-0.8777119291945413 0.7478000406325122 0.7910686994567387 169 155 142
-1.2558418573958312 0.2349544741711809 1.0853041604817366 121 99 41
-0.9097251949545930 0.7552578354251849 0.7748412060531167 94 64 54
-0.8063483394666431 0.1965160305876122 1.4734368030069909 66 57 26
-1.0088893542944584 0.1969641168871541 1.1003569982857424 135 123 73
-1.0600162500501493 0.2053729315958384 1.0761553155391064 150 137 85
-1.3505662822319144 0.1545138473805084 1.0746407748351421 55 39 16
-1.1110045174616774 0.2229399170163356 1.0536617104097101 201 191 104
-1.0749860972232170 0.1178981069590769 1.1008474020905337 149 132 86
-1.0871242399398493 -0.7850881898564602 1.0040042195026968 137 137 127
-1.2117038857656834 0.0725165087857405 1.0953006268494783 169 163 79
-1.0760603104314723 0.1181753914135802 1.1024547317681601 149 132 86
-1.4703368216008919 0.1079868102676098 1.0876614249127103 87 83 74
-0.8997994579872631 0.2052648223372032 1.1480166825885565 138 132 72
-0.9189180357245590 0.1027036804501978 1.2113202374058449 105 92 40
-1.3264852629758919 -0.7135378698654417 0.9484021036615330 168 171 152
-1.0796744497595561 0.2370048304640634 1.0645954520113938 247 239 167
-0.8937814470649086 0.1031177158391504 1.2526952835859479 171 151 88
-0.7983693420049141 0.2438487840118388 1.4411187351347055 194 180 135
-1.1475536104356683 -0.6015779503384066 0.9630020071879460 120 122 101
-1.2378396798179816 0.1525987005500585 1.0913210063348096 129 112 66
-1.1910042951642759 0.2730584099396072 1.0636384012560669 184 166 100
-1.1327146898782985 0.2639708927035554 1.0539293579196056 217 204 108
-1.2669472008532934 0.1600285648647882 1.0720460935075895 150 139 75
-0.7962010356626672 0.2399269436466076 1.3390923685246965 241 232 173
-1.1987023787070559 0.2840662167901057 1.0596705010752627 188 176 90
-1.3462825972132431 0.3217190550214598 1.1352011375796880 92 77 46
-1.2285875268305333 0.2959071399940529 1.0732853603190196 188 168 118
-0.7559967246364196 -0.4118705601512566 0.9721657236502286 148 154 140
-1.0510776326388498 0.2659491089601430 1.0729481459197081 152 139 87
-1.1772341153871579 0.2891795351257927 1.0721320849885729 145 129 70
-1.4619340695741534 0.1377657701940010 1.0890138539132455 117 103 54
-1.2008264334810614 0.2997642874855390 1.0682642773135715 194 182 108
-1.2006514324977744 0.1567903341187180 1.0653406390335978 198 185 117
-1.2188676532126643 0.3055613331659877 1.0760539223545011 133 112 65
-1.2239845170663444 0.3145559908899326 1.0667348604143343 188 169 111
-1.2341637006314772 -0.2809244770900251 1.0547118431855351 230 208 169
-1.2531531414185308 0.3372551966720254 1.0904521589411571 189 173 111
-0.8562482175868106 0.2757465365644023 1.1721710903401497 236 223 129
-0.9489213708713804 0.1386002515748959 1.1444289419335436 247 237 152
-0.8145415175584803 0.2810119251652213 1.2306608695291883 236 224 138
-1.3621977178445130 0.1413994445150156 1.0695990135406248 229 212 160
-0.8151709648532713 0.2982748438663521 1.2653748975206969 144 127 71
-0.8687094225104225 -0.2640272363674829 1.1326391460405807 194 200 164
-0.8744777748985626 -0.2602974881957758 1.1184784588913221 189 194 162
-1.0977298462997682 0.1819602893719963 1.0682880068355900 201 188 110
-0.8091259037634690 0.3009813051427040 1.2571900290126570 147 132 77
-1.0363762083025503 0.1004176154879665 1.1446062744135246 195 179 130
-1.3431965344229375 0.2242438859229852 1.0611262901657037 162 146 87
-0.8084303276498296 0.3075678194540385 1.2735620838394939 147 140 88
-0.8283543222552021 0.3020876462039345 1.1965761281783951 223 211 125
-0.8541175118939478 0.0993146615537399 1.4811445801372667 72 52 19
-1.1509699188187723 0.1959443049356844 1.0645879396362039 206 196 109
-0.8427455433599451 0.0985214325192387 1.4511898759507040 175 153 112
-0.9969408410583018 0.3345772521304217 1.0743279128556111 172 156 97
-1.2632015160233838 0.2202639271365033 1.0804512211899009 147 127 58
-0.9021798253943011 -0.2282333892062141 1.1319470434244749 254 254 134
-0.9292467363663357 0.3280853578241832 1.1120660613099302 164 145 87
-1.1621403905121015 0.3849653425537982 1.0708343827765110 138 120 58
-1.1005916977061980 0.3712643936816966 1.0592275882654472 161 145 83
-1.1451680031444833 0.3816297335450174 1.0591258748315837 146 130 53
-1.1851545103279308 0.2125544263912406 1.0761507801351189 181 164 118
-1.0821185410590164 0.3724475279770505 1.0540713031356930 178 161 91
-1.0052006604889587 0.1883404594056750 1.1050213720494093 170 157 105
-0.9638774406642641 0.1362528740561679 1.1344173706916214 162 147 78
-1.2648647028339639 -0.1468195474661169 1.0964104995192450 157 139 89
-1.2323749733922076 0.1783241457865569 1.0705836227050927 147 129 79
-1.1364797368703066 0.2297990704433804 1.0499018083794029 232 218 145
-1.0249198690659584 0.2166568759414547 1.0731968412758626 189 176 106
-1.2099282326596505 0.2769585167853650 1.0599786862472873 194 179 96
-1.2171759066090577 0.1862494033697414 1.0615563679080415 159 143 66
-1.1831200837983291 0.2861530355348005 1.0755327540521866 160 144 84
-1.2846678633221138 0.3104245970689688 1.0893542204339557 216 202 131
-1.1604180326329898 0.1945036005201022 1.0664263393516171 138 123 54
-0.8963049611229017 0.2653035767458988 1.1259096361277310 227 217 128
-1.3756584583371014 0.2344313037099491 1.0521568198058167 151 122 82
-0.9458235394027342 0.2826174008936084 1.0926867434098184 244 232 156
-0.9641875155566664 0.3031403106006577 1.0841712128276115 246 230 135
-0.7662889127512494 0.3117347773283745 1.3826166854119120 105 90 35
-1.2903999873629861 0.2409190231253709 1.1023881253562466 134 107 52
-0.9259527731833682 0.3278157040031900 1.1128021123125815 234 217 163
-0.8418326357626243 0.3392377191631566 1.1880019558993766 163 148 83
-0.7683430270063648 0.3462174815889412 1.3276111265796358 197 188 133
-1.3709993725884189 0.2719801405705664 1.0654392280695368 163 142 87
-0.9351269940562423 0.3467911576027393 1.0760653212979416 179 160 94
-0.8992053664446098 0.2186188701499820 1.1598239568800870 176 161 94
-0.8839947738197700 0.3573588601101733 1.1184788813462867 248 234 146
-0.8084056758494168 0.2370227897172714 1.2896824388457677 151 142 83
-1.1413737214675364 0.4147427327439960 1.0580682900059859 151 134 64
-1.4591042400906593 0.3496199972739195 1.1867512759882515 106 99 70
-0.9014409704968690 0.3787832671901136 1.0932555352844713 252 241 152
-0.8696060026966748 0.3760650282998669 1.1138368786857249 218 207 117
-1.1205086204577732 0.2857443972297516 1.0458835183167772 213 205 98
-1.3513100926295316 0.4676161413405081 0.9549423637051363 170 143 72
-0.8961576852364138 0.4159872853227041 1.1068064378280331 170 159 113
-0.9885414564035665 0.3207008867875109 1.0816945179721247 166 152 91
-1.3961056565677923 0.4390307079115958 0.9717218757492010 98 98 90
-1.4066419260944953 0.4436471500296248 0.9737309515638872 62 63 58
-1.3309321163983254 0.5252639292172946 0.9925974835330076 74 65 22
-1.3755698390183857 0.5875143418209152 1.2450467837685797 184 191 158
-0.7286681353473715 0.4337405455073622 1.2454190643679368 146 135 79
-0.9709641249401678 0.3696170680775449 1.0754701972032850 216 202 105
-0.9775259979852567 0.3729633153173800 1.0856694029930336 216 202 105
-1.3387378428557744 0.5211629725084406 0.9066258108662335 145 156 126
-0.9509403418932719 0.4650921247433314 1.0642686964451431 206 191 106
-1.4492199264352115 0.5154192956356322 1.2589094350457575 126 129 112
-1.1894184380963033 0.5868370602993295 1.1391236839908092 191 172 116
-0.9775594555553351 0.4070728640545556 1.0655737956057802 187 170 100
-1.3762189419803761 0.4786058019710538 0.9187214553346373 72 75 54
-1.0907704802915688 0.4399039268329205 1.0331679385063410 175 154 87
-0.8239399675693402 0.5198791635033624 1.0917060126702576 255 245 183
-1.3263627865052068 0.5091290052906321 0.9047605112512778 96 105 78
-1.3414364607558105 0.5165652498177075 0.8919293403530394 84 92 68
-0.7377683348811070 0.5238251201049958 1.1485292677676393 222 207 148
-0.8552048201440188 0.4479405480723248 1.1004594547892432 225 212 133
-0.7353347132980489 0.5263292086739130 1.1485327453375789 170 154 95
-1.3203149571665538 0.6159892645457342 0.8740785014709931 68 67 49
-1.3314577115419279 0.5254772355234453 0.9045434860575898 127 133 105
-1.0324929041209667 0.5965322768852029 1.0881771867840759 58 47 29
-1.3293260352924463 0.5307868883259970 0.9075815448228134 251 255 228
-1.3246456560024031 0.5525988034473172 0.9691482763175191 74 44 8
-0.6885136143873163 0.5709865506277982 1.2723186783726261 117 110 100
-1.3260030145915480 0.5676361075973442 0.9576324222713084 166 146 77
-0.9726014994103946 0.6011529504203561 1.0801433139731207 61 59 36
-1.3152341959866938 0.5662335949142093 0.9167082859066992 159 157 108
-0.8956857731791232 0.5942713651087037 1.0814491734588685 109 98 80
-1.0516450555031571 0.5487723901174421 1.0791816079155874 122 102 49
-0.8067989423915217 0.4959337588366731 1.1153016151031372 255 243 198
-1.1199485007724022 0.5887767523155236 1.1144689912601677 135 116 86
-1.0398448921137609 0.5578630680816735 1.0727371387024365 140 123 69
-1.3131426122223377 0.7527807187972809 0.7344671124068695 93 79 79
-1.3068462410402011 0.6025464413416141 0.9625071933330243 196 171 81
-1.1306634459020348 0.5946439550365662 1.1207258519616750 91 74 48
-0.9949440391807269 0.5471566134211953 1.0682552518834609 160 145 78
-0.6977691811488256 0.5203530851178040 1.2738907375553188 144 133 54
-0.8241019171230732 0.5171185254205556 1.0846971209119542 169 158 96
-1.2616569662683261 0.6146140480070286 0.9412522484982627 148 145 94
-0.7235252208812402 0.5692198059015079 1.2903953072365055 68 57 37
-0.7052822758867276 0.5370675751385038 1.1701983145208639 144 120 60
-0.6960009973216243 0.5733902610119684 1.2420397733619706 112 106 90
-0.8391461617839803 0.7314292135822492 0.8474706064034832 99 78 75
-0.8356554292992467 0.7181766707299179 0.8122076823835922 94 74 73
-0.7889684423055036 0.7280660864105406 0.8831847077710014 85 57 53
-0.8284594642350638 0.7288029866022606 0.8281094990828241 145 140 137
-0.8838223791710800 0.7492726636434887 0.7839204869228039 201 185 162
-0.8473878228400861 0.7465383784612484 0.8018789182719759 208 195 176
-1.1269121666663500 0.2942160530979656 1.0494287548554426 160 144 69
-1.3581792246842195 0.3737657854758448 1.1551686614099337 93 86 60
-1.2119636080549812 0.3378221788413656 1.0636444070883075 117 96 49
-1.5017089264250987 -0.0338244644934437 1.3140059102882686 167 163 126
-1.3321057275024506 0.6291892421467186 0.8374419396442502 41 30 26
-0.8904572973715023 -0.0900124304798178 1.3746584740764733 154 135 58
-1.1547447979104488 0.3960029128539000 1.0756339809474456 128 111 42
-1.2173291503514938 0.4754552491953783 1.0975994220856660 148 136 54
-1.4855166869240801 0.0447336218120679 1.1328730729100660 161 155 119
-1.1391593837374041 0.7697125536689886 0.7023048926977133 179 180 174
-0.8907501835792244 0.7319440467520895 0.7983122489306655 84 60 58
-1.3017358574208326 -0.0568878289508037 1.1711112615831369 107 93 54
-0.9890425144625651 -0.0722558297617334 1.1514681775920279 243 226 144
-0.8693242312084212 0.7386323384208314 0.7843384593078531 94 78 78
-1.1944594964200137 -0.0470467599224334 1.1202571154155221 87 62 21
-1.4722644357697769 0.5809185147293493 1.2536848146363511 57 57 47
-0.9635421726022610 0.4258995749113685 1.0617531604523360 216 199 127
-0.7291550742602131 0.4547296943958402 1.3926003245292531 43 29 26
-0.8573080317689057 0.4317868161454586 1.1013596369946996 238 225 113
-0.8588957982252517 0.4328851583027125 1.1043380110904386 238 225 113
-1.0829420446726343 -0.0431467487544365 1.1371013702106723 177 152 95
-1.2200579255881783 -0.2921035041174548 1.0397703156554396 132 116 65
-1.0342913320313767 0.0103747310497794 1.1435555324095401 131 116 47
-0.8938002588290070 0.0051300431831562 1.4914987719564028 107 92 53
-1.4340835948766797 0.0644422746324704 1.0893123267412641 161 149 99
-0.8689156307079762 -0.3271466503925529 1.4357071460057751 159 139 106
-1.1003201716096069 -0.0195948900777786 1.1353568244091417 128 107 52
-0.9907046482756472 0.0134348300779880 1.1870016534924874 192 175 119
-1.2033041525628061 0.5601397962793135 1.1271018624532128 171 160 106
-1.3815132952661808 0.0242245069871731 1.1252534776973107 107 101 75
-1.4877514571006594 0.0388040365124169 1.1444346960206904 86 75 53
-1.3905381042725218 0.0266218952211228 1.1142588021853972 110 104 82
-1.3219430105698460 0.5710613080107992 0.9779974160436132 155 130 66
-1.3739828690582778 0.0388085165567672 1.1059328505249180 71 67 38
-1.1866292956949411 0.5949199130323608 1.1404635791948026 56 37 22
-1.3830357240270719 0.0975854728351706 1.0687732916704509 147 124 83
-1.3344053617233183 0.0909344799324031 1.0771705414320041 39 35 24
-1.0161179388239183 0.0085938081604443 1.1450018596171478 144 125 57
-1.3119932576926907 0.6112311420327988 0.8993369882805917 87 88 48
-1.0471502397537014 0.5861074352109779 1.0842943676342875 147 137 84
-0.9848222349849742 0.5880001201175210 1.0798669121169471 169 163 101
-1.4377483845479888 0.1256478349439302 1.0946490341011825 173 160 116
-1.4591695466667216 0.1328804310886380 1.0907658989992508 146 137 94
-0.8499899144742512 0.1283736991203327 1.5050860948554472 146 131 100
-0.8816055556841453 -0.1218424789791588 1.4269296812842152 224 211 96
-0.8938595970962865 -0.1054531821888734 1.4176514774150475 137 116 53
-1.1475613983844735 -0.0669729919892663 1.0966006947097169 138 111 58
-1.4009717170746812 0.2341783761923360 1.0536947525318081 159 134 77
-1.4034529609579938 0.2346386911262905 1.0566980020685393 159 134 77
-1.2551589846709310 0.1849245950184516 1.0737286430772552 146 128 54
-0.9184671019562997 -0.0698460364714470 1.2866933847125637 139 119 60
-0.9791043721615975 0.1627659512193113 1.1417485396245142 166 147 89
-1.1560310301951331 0.9649999639627272 1.2857416658856096 167 158 153
-1.2208065637662813 1.0066986506527786 1.2485062481800859 103 79 77
-1.5379360647625342 0.3344498949403296 1.1880486298051625 139 143 144
-1.1049458148038458 0.2237878371196584 1.0490766013238484 186 177 82
-0.7685444074539307 0.7439627698439636 0.8893690288775580 201 202 188
-1.3615240246519036 0.2804122648250875 1.0994067431173387 130 109 52
-1.4717828570389822 0.0512198944663239 1.1141625990377231 43 40 25
-0.8041921096773093 0.2393191522585629 1.4584657431235577 98 80 40
-1.1848860339516896 0.2717016445133324 1.0645503990916323 148 130 66
-1.3040434799595584 -0.3014841656668805 1.0902817642902096 123 116 62
-1.1205706621319049 -0.2990302890701391 0.9718161122545002 241 248 168
-1.1129279085750658 -0.2913940690096005 0.9751867979581291 240 249 156
-1.2843651872836948 0.3894733146479131 1.1111140936282389 176 164 116
-1.2828097659684601 -0.2868879406257439 1.0777173162672204 207 193 144
-1.2140189931306229 -0.2803772693008883 1.0595266154020664 125 109 58
-0.8678644091851014 -0.3003040612163906 1.4066844334679507 97 74 32
-0.9261773908293400 0.3340084869980752 1.1141138098372929 163 140 88
-1.4267882361999951 0.0948143041686463 1.0557358267706021 50 43 33
-1.5288669619457611 0.1334067379929482 1.0938903005077738 39 41 36
-1.2465499225763386 0.4247909121858350 1.0898067397496367 210 198 116
-1.2347932289909695 0.4266162635178588 1.0884456977586834 165 147 81
-0.7615830617507661 0.3632142733492340 1.2865094579882881 201 192 117
-0.8502275496329073 0.1501271321803853 1.5276751555823904 94 83 63
-0.8455644215254943 0.1485550518982245 1.5182338799890340 94 83 63
-1.1949351046924377 -0.1305450832295291 1.0726584852132506 171 152 86
-0.8770987471080166 -0.1624566941880236 1.4003002707514396 149 121 58
-1.4046955803447221 0.2247275733364791 1.0543346384894139 117 90 45
-1.1079725369718425 -0.1087898952128317 1.0779331151493359 202 184 84
-1.2443727099112065 -0.0919782087775605 1.1110881310337377 148 133 68
-1.3398137333831341 0.4706444887651007 0.9378505965182014 67 46 17
-0.8951670200418567 -0.1247511265290515 1.2680141407207925 144 117 48
-1.1924404866415119 0.4710749227422640 1.0770309234262783 199 187 103
-0.8775949832429008 -0.1281291754839332 1.3724868376180188 232 216 103
-1.3339507191776458 0.4800702121042791 0.9342567452051064 62 45 15
-1.4159999600894442 0.2801223796151683 1.1103978508198247 161 137 77
-1.3579810310081226 0.4958159882506404 0.9025604508600367 99 103 76
-1.3471123138339298 0.5192526266792780 0.8864808342878729 59 61 47
-1.1373928354677845 0.5475550081101035 1.0908020093463200 137 116 59
-0.6974986470583253 0.4941484146001338 1.2867979108930159 129 117 59
-0.9546359983431361 0.3664995031290363 1.0672054640423378 229 214 119
-0.7727656949312489 0.3652448460225799 1.2665131789739741 172 155 83
-1.1499930968084344 0.5796113473660373 1.1172773980324477 150 133 89
-1.5075489947873471 0.6310882045170335 0.9121916187980054 100 96 87
-1.3748620295320930 0.4494176072403249 0.8816958062310342 22 21 16
-1.2581240695134790 0.6099421797301559 1.0062922278780788 68 62 48
-1.3628262667173110 0.4655188143082103 0.9294933942350424 40 43 24
-0.7156825639818435 0.4742305865692830 1.3634374949308974 140 127 85
-1.4396554104298629 0.5612251335417655 0.8927640404494860 41 36 33
-1.3056066014325534 0.6112545898648277 0.8670663465616077 109 106 71
-1.0272903811895053 0.5978448805397375 1.0694849189491149 80 73 57
-1.3381791259086822 0.6238579597011689 0.8408765268148163 132 134 95
-1.2818914826080889 0.5963568900010400 0.9313142435391512 79 58 13
-0.7597800653792995 0.7451990021589815 0.8980322762612171 195 197 196
-0.7778119261213772 0.3286948397473424 1.4394522813521129 188 173 116
-1.2425551628714702 -0.2465790884986352 1.0581176999465112 151 131 81
-1.1813107805219341 0.0025388183514315 1.1326078932555270 202 185 113
-0.9020846782164724 -0.0211749826453113 1.4771497363964341 171 168 101
-0.8723419276083123 -0.2081067766692420 1.4336595018765659 141 119 62
-0.8811504864906800 -0.2050136414096763 1.2372934394387418 124 96 49
-0.9102139583728622 -0.0662737365989396 1.4334573166984232 208 201 94
-0.9073448952729416 0.0276138189877632 1.2978556261232328 155 137 73
-1.1205784661545299 -0.1509267702117047 1.0751194087415363 182 154 89
-1.2225808847615633 0.2424366296179138 1.0648649547132396 139 117 67
-1.0514188877602999 0.0242342416189188 1.1529917318007072 208 191 119
-1.3272745919906819 0.5059852599581811 0.9337011844430358 68 49 19
-1.1700925143541654 0.3593743614320308 1.0555266644324905 164 145 77
-1.3442239619358440 0.5262730880013562 0.9292311759222731 78 84 58
-0.7154546076792578 0.4582823867445314 1.2894394423957074 133 120 67
-1.4020748619712655 0.4558201930634276 0.9706789571246713 64 61 52
-1.1597442670289577 0.5771123300913847 1.1182384400880985 134 117 74
-1.1685656408403191 0.2053508691689422 1.0727889739841474 148 133 78
-1.3349383310329790 0.5423206804056450 0.9026677502062048 240 246 218
-0.8684988354601718 0.0323687651553798 1.3715112892227235 178 165 113
-1.2693131487392355 -0.2751855503082831 1.0654230810522485 99 76 34
-1.4201025206265037 -0.1936335555846030 1.1742436614646941 128 138 129
-0.7999564593859502 0.7030197851628150 0.8870143068126283 135 110 103
-0.8167412725243138 0.7066646362257935 0.8740708938317355 139 125 114
-0.9230990382237795 0.7880871944910233 0.8916248014173509 234 229 226
-1.3530081824217375 -0.3190641225664873 1.1162626841118091 184 190 154
-1.2368674992792033 -0.2623629011415635 1.0589669057601594 183 162 109
-0.7231850552508010 0.4549641148406165 1.3398783123198446 175 163 103
-1.3908972036026708 -0.2107343823074448 1.1579735633662525 183 194 151
-1.4008987468656020 -0.1757516197157823 1.1850579120758431 181 191 157
-1.0852497058659722 -0.0520594803902238 1.1431994061248461 172 147 90
-1.3789300696857378 0.5896715227422966 0.9507591110190431 249 250 242
-0.9183495949478021 -0.2211228105195054 1.1201544735325548 236 244 47
-0.7112989101430270 0.5407300793664975 1.3954899923899178 64 54 52
-1.2218294656497053 -0.0371447149788930 1.1516312471336205 92 70 31
-1.3019729677135232 0.6094020286357973 1.0180642745723891 88 63 22
-1.5505584733512223 0.0188732695119889 1.2301971816676827 131 129 104
-1.3768345920248162 0.6921669447159385 1.0099391022939610 56 40 27
-0.9670298541962483 0.0543724430422192 1.7157632246327323 71 65 49
-1.4354194202221247 0.1058184035678101 1.0521864211923428 33 30 23
-1.7766068481665516 0.0178225571297670 0.4654512568177194 59 46 38
-0.9429793314348228 0.0610363172122164 1.2520752738091270 186 167 109
-0.8742342438362865 0.7356263639344977 0.8538425268856471 95 71 67
-0.9465135394668636 0.1057715204078884 1.7195271459124637 59 53 39
-1.4972393905725780 0.3064426286007589 1.1599630728108679 41 40 36
-0.7752495811463247 0.2818912105788711 1.4363438477371189 96 81 38
-1.0879720494847542 0.3641211731339407 1.0534747475269484 185 167 103
-1.4643040029011989 -0.0154953144781327 1.2623462218449633 164 166 127
-0.8093384252878052 0.2307960039454186 1.4811418128436589 113 95 59
-1.5319719331157595 -0.1004613652278488 1.3286267962005820 56 55 53
-1.1119942768132522 0.5430323387694629 1.0827502591416887 186 169 113
-1.3662923918072141 0.5372886250011363 1.2001106568374704 200 207 173
-1.2143077149195389 -0.2369915522760344 1.0826434387519481 191 171 76
-0.8881997348498867 0.0527837529978817 1.3203439633122636 187 176 131
-0.9406495981216709 0.5376772728468052 1.0611821805698074 216 205 160
-1.1579953503224054 0.3923842088254743 1.0693718696176602 186 161 104
-1.2990032667483185 -0.0453962359530897 1.1621248789053538 50 41 2
-1.1957712600955350 -0.0554275431103628 1.1036351870256969 192 174 90
-1.2798942304747574 -0.3049553207001029 1.0844273499334036 152 142 89
-1.2858932503674800 -0.2943942051825885 1.0784110014744448 226 214 162
-1.2856756581299611 -0.2815074360754501 1.0764719238325895 162 145 101
-1.2178851893063620 -0.0482025195589684 1.1383412962805675 123 99 55
-1.1199829740983418 0.4063224764943064 1.0538929489713420 171 155 78
-1.2909171500941758 -0.0387212642811506 1.1606130678576079 49 33 0
-1.1659544868194012 0.4273140816746822 1.0577665216523731 208 195 101
-1.1290716144270512 0.4191585197976854 1.0518862592172509 180 167 88
-0.7501630335523651 0.3871440559089544 1.2855524271913077 193 178 113
-1.1528722645202762 0.4286724742137341 1.0543729258637873 214 199 108
-1.2470211226556944 -0.2078993433268634 1.0765523813246587 142 115 72
-1.2424599531451699 -0.2051373323427307 1.0770102195760030 166 142 98
-1.2586629199812489 -0.2005211522145346 1.0714666138156774 131 110 63
-1.0755719209831507 -0.0365745517956424 1.1412276860164405 152 126 65
-1.1963107609176675 -0.1748927908107759 1.0721273471164101 125 97 50
-1.5345907908568577 0.0177454847948797 1.1978184898705582 137 132 103
-0.8505640389255897 0.2535891751057749 0.3868420764143808 176 158 86
-0.7344372061772491 0.4169437738728139 1.3043277324593374 127 115 55
-1.0855527365648390 0.4416894560483628 1.0524101838912365 235 215 146
-0.9631873073656452 0.4225864510280199 1.0668206070419870 175 155 84
-1.3215021072828510 -0.7917413458034607 1.0503297885955452 100 101 83
-1.1951606407962942 -0.1408066747122242 1.0661981535570759 155 137 55
-1.1951606407962942 -0.1408066747122242 1.0661981535570759 155 137 55
-0.9607368888947014 0.4323855703215071 1.0645707683207775 226 208 134
-0.8775485475032481 -0.1485671409162578 1.2876202090316462 194 178 103
-1.2205061798304413 -0.1093148346852525 1.0836325636931354 211 195 110
-1.3335077735527916 0.4990285687214683 0.9598985125778859 116 83 14
-1.0521138630653821 -0.0163558244538756 1.1472079476505410 243 222 155
-1.3846260388818408 0.5856860360670557 1.2448581977496014 204 211 180
-1.1869301452216243 -0.2632485725610221 1.0428733286518446 178 149 93
-0.9951556416290331 -0.1078300784130577 1.1414890548337442 218 197 130
-1.0147867169723728 0.4692814297296216 1.0585120136451667 177 159 77
-0.8766022020753865 -0.1071183264125714 1.3667873716335479 204 188 101
-1.1349636042728024 0.5031701243162580 1.0799161126947558 144 126 64
-1.2070777837386630 -0.0634564797140647 1.1053669131216812 208 187 120
-1.2074698491860669 -0.2052416767968288 1.0572213038130318 153 132 67
-1.1098472450396495 -0.0708607585413036 1.0962524026272937 192 170 84
-0.7264124453527037 0.4617940625973019 1.2315276394758350 166 151 92
-0.8982798461446296 -0.0089501173405440 1.2858552721274845 114 102 44
-1.3075652543453780 -0.0382782378025250 1.1482732127906279 185 180 124
-1.0513993253376941 -0.0638512182037075 1.1177241984004109 208 188 99
-0.8895135077963224 0.4816003670927004 1.0791561389492934 179 164 95
-0.7153974586577274 0.4750939410742238 1.2268071363340556 201 187 124
-1.0208055047322859 0.5097988621659038 1.0702272328086542 205 186 127
-0.8447059097514239 0.4864773744375063 1.0956764349093233 177 164 96
-1.2114261817207757 0.5896321783515202 1.1526732412183929 168 147 118
-1.2982546078844133 -0.0136209394972323 1.1496613998987892 179 171 125
-1.4394304174167600 0.0644061948773634 1.0864353149349617 69 65 36
-1.1033539911936718 -0.0303689400660823 1.1255842901909814 220 203 125
-0.9533314982188393 0.5150133881333132 1.0711960490825150 163 146 58
-1.3512060819526410 -0.0006614258518416 1.1665354639331937 160 160 124
-0.9759032061113694 0.5245687445755853 1.0568391575756735 165 145 74
-1.4101745183700789 0.0721976472910538 1.0670163540246922 159 142 88
-1.0586594643594409 -0.1302232131279055 1.0912439952740454 174 152 76
-1.0754323626521167 -0.0164624291426777 1.1329487308418085 144 127 55
-1.2491180691788477 0.0041081019968648 1.1368470441084790 146 127 59
-0.9095686291674675 -0.0274292009215764 1.3319479868988608 168 151 97
-1.2469594720948185 0.0582389209369093 1.1233670550834531 130 116 67
-1.2423563385778666 0.0049974969886573 1.1327799434963370 182 162 99
-1.1079821284172044 0.5919716253810485 1.1132213527085011 78 58 23
-0.9136245745034960 -0.0212648862634999 1.3072653319251724 89 66 24
-0.8994108598753904 -0.0162322342257253 1.4543275287385307 97 93 45
-1.1457646483237998 0.0789057451454745 1.1023301549816555 159 140 82
-0.9347711080800927 0.0582221774225147 1.2011932640057661 219 205 117
-1.4945500371542000 0.0537615169906577 1.1197872797442072 35 31 19
-1.0641599285768499 0.5953338391773090 1.1006507958257292 50 35 12
-0.8902888658496916 -0.0035269424297348 1.3513648613866198 172 162 111
-1.4657518627349231 0.1287436340601576 1.0999287657316084 136 126 77
-0.9791602419191885 0.0024123454314986 1.1726230936235233 237 225 141
-0.7366651017746578 0.5297277148693256 1.1458551058417212 205 187 121
-1.1908077186398824 0.0958379530286324 1.0964143582124637 184 165 107
-1.2286475742332719 0.1059701824221934 1.0746903299333586 223 214 121
-1.2983323859607696 0.1151708275463595 1.0776822791848426 229 220 155
-1.4516993829060492 0.1399860733100775 1.0877120821342385 137 118 60
-1.3826974205491371 0.0506960628449807 1.0858623813170354 156 146 93
-1.1275381066139178 0.1018428321180598 1.0998232594318500 171 158 114
-0.7282376242096046 0.5448510275705835 1.1632809045617987 121 100 37
-1.1222525109894930 0.1064393684709788 1.0971698580100173 196 173 129
-1.2353530417070517 -0.0426480110571298 1.1251738140040590 255 253 174
-1.1212595432529866 0.1063283254319701 1.0956011267251540 176 161 122
-1.3528569200702931 0.6232685927488605 0.8452596285319478 141 141 105
-0.9623454966647975 0.5964247984922869 1.0876126942970019 87 73 36
-1.2345848456200901 0.0553472417615775 1.1219657077824323 163 151 101
-0.9575404737574372 0.5956914147027196 1.0790690699979828 121 112 83
-1.0688054272634369 0.0411317139502699 1.1285152042487188 148 123 56
-1.4821734370396742 0.0990286177581133 1.1045875566229959 83 76 50
-1.3904359838222844 0.0906199637179763 1.0656875645061905 228 210 160
-1.0590925544207521 0.1112967876560263 1.1076226816968811 131 109 49
-1.3038731088208606 0.1449747294901565 1.0791299695944332 146 126 65
-0.9072014115750200 -0.0528069062049894 1.4603406797232050 253 253 181
-1.2122686110112413 0.0830951350490996 1.0893094338230058 165 153 77
-0.7811005156709506 0.5857471644904504 1.1412073038173318 59 43 30
-1.1344907377292563 0.0740281366254573 1.1033673491518077 142 123 64
-0.8397361175834530 0.5858091033550324 1.0678019680199800 158 150 129
-0.6865862888615242 0.5812423035043413 1.1727064699773375 83 80 63
-1.1944453797855270 0.0946583050582720 1.0962538594662383 151 132 73
-1.2623421917157875 0.1024927612823270 1.0841371444566172 147 134 64
-1.3831990670903569 0.1607321209606716 1.0648446753433787 204 197 151
-1.2671915237087401 0.1203827829252583 1.0869282327628771 226 212 147
-1.2317741238657820 0.7294480499266039 0.7257745201482149 118 96 85
-0.7706854431124670 0.6682581939248178 0.9310537766275072 101 70 68
-1.1774069026721188 0.1095126732731769 1.0941942201768600 251 237 162
-1.4067432822648531 0.0317676457611667 1.1172349384124771 136 128 105
-1.0248560421429396 0.1190717851752073 1.1018193614918204 207 196 114
-1.2158747350487560 0.1177540562778980 1.0820086624691876 136 124 52
-1.1851289707337722 0.1140725387640639 1.0940226912864293 192 174 128
-1.1873884207199938 0.1180426993935666 1.0942858325594205 153 139 94
-1.0670476363250079 0.1310464387346831 1.1023704696287802 91 78 33
-0.8483472672542017 0.0971407438189574 1.4610047410214253 174 159 118
-1.3869503824589082 0.1450896468625247 1.0705013208314182 87 65 24
-1.3635939044737904 0.1428189011006116 1.0789866664376710 179 159 98
-1.3859599111568601 0.1519354944441228 1.0669750315590629 168 155 111
-1.2378723275876962 0.7688592485064952 0.7081024927172471 80 56 52
-0.8058152621481053 0.7061699863114250 0.8714204131564133 153 131 118
-1.2058656744456786 0.7726591537503084 0.7089509402666730 188 188 180
-1.3658541072822294 0.2062379224138878 1.0581251490726369 206 202 131
-1.3611704545439662 0.1641979194843427 1.0592353277164654 45 43 30
-0.8676750778584293 0.7142098782444669 0.8178387926775869 118 93 88
-0.9391042799872293 0.0075006598945912 1.2459400662929494 152 137 70
-0.8638721479373609 0.7198266628282672 0.8213036855117806 78 54 44
-1.1049657259663337 0.1364752409021150 1.0812272083025665 175 168 124
-0.8638870131277556 0.7246221753475326 0.8179712790083028 100 75 70
-1.3327465425301575 0.2091739469348390 1.0610954434945163 74 55 121
-1.0697376558171758 0.7644716968231793 0.7124635588156478 96 71 64
-0.8855713259620711 0.1378705856042400 1.2094414162609279 219 207 121
-1.1775932207287860 0.2049902488292011 1.0788832653134253 165 145 92
-1.1864433824601526 0.1926423391509015 1.0800211030252103 157 138 82
-1.1807923806711540 0.1922720188127593 1.0783350115859915 235 219 160
-1.1848288145531440 0.2085097240687371 1.0799578831082339 155 138 86
-1.0637125446759153 0.1939998434499009 1.0829478381364370 149 136 83
-1.2871887201070076 0.2133989301566524 1.0788292490999822 168 150 86
-0.8037768091469990 0.7458993351318710 0.8560703500631118 91 64 57
-1.0976718855406167 0.1873667725990499 1.0661924449164177 146 130 81
-1.3252013875832389 0.2396264219782276 1.0762942368066808 164 142 85
-0.9130958355095975 0.7588211863455001 0.7713044871335196 146 136 111
-1.0340180847332496 0.0439852600127833 1.1570914328698789 164 148 89
-1.0763578696727396 0.1877687071992262 1.0834328477449646 165 149 100
-0.9631315552618794 0.1796199198787359 1.1391371855295223 204 188 136
-1.5179906979008451 0.1120502935464778 1.1120491771922929 53 49 38
-1.4741028726715180 0.1086769300229107 1.0919649320114415 101 99 87
-1.3333597799108277 0.2689978265480018 1.1230020777186045 159 131 84
-0.9544844699997715 0.1887199955520028 1.1462098236975533 143 130 77
-0.9319972888484663 0.2054769250938692 1.1339317024154127 183 168 87
-1.1298192328934049 -0.3089363298196790 0.9619256542515195 255 255 181
-1.1503146004602520 0.2124319776580427 1.0592617660549055 126 111 46
-1.2039239729965991 0.2252608889663534 1.0585377906749638 196 178 104
-1.2040753526345700 0.2256771277851618 1.0586531170042865 214 203 113
-1.2100374613074281 0.2464344882968802 1.0601891029108790 209 194 111
