ply
format ascii 1.0
element vertex 688
property double x
property double y
property double z
property uchar red
property uchar green
property uchar blue
end_header
-1.4609060403468712 0.2082987420764000 1.7507687879865859 82 82 48
-1.2928055167809396 -0.6961348746944559 1.2944300937380484 178 171 103
-1.2626276269056493 -0.4102354378748643 1.5849396615759426 235 244 217
-1.2581891297262136 0.1945499003339091 1.8825886328372248 143 136 107
-0.9037184378395925 -0.2975111192484306 1.5134294484344888 148 125 58
-1.0446797049287777 0.2544837919627515 1.7986749021104000 182 173 142
-1.4763706724407804 0.2059926852941651 1.7431039931928873 73 63 38
-1.2541760727468561 0.2056181025253311 1.8747052535151967 165 152 100
-1.0600031890875816 -0.2814404554330338 1.6186831943291993 165 130 92
-1.1826703581099829 -0.3906253684865205 1.6201905094666840 197 202 162
-0.9696775739114772 -0.2683152561278859 1.5760648592166790 133 107 50
-1.2444287210016325 -0.3865666533660530 1.6212931134273398 226 235 206
-1.3914497811534374 0.2331963744455945 1.7710795255599361 147 122 65
-0.9708561600972980 -0.2509735856835857 1.5901008396734373 140 118 60
-0.9310214268043786 -0.3687672500676730 1.5353566701892618 95 76 33
-1.3254406715256777 -0.2541776847792545 1.5548557537224164 254 246 137
-1.3270609462308951 0.2291917554326071 1.8174626227624557 200 173 118
-1.0710352303713913 0.2595211768931979 1.8300383014932724 56 44 20
-1.1013282859113240 0.2532336745818100 1.8376427375017423 145 119 62
-0.9104629687439832 0.3583236304703469 1.6342810295852135 222 205 136
-1.1838739563354119 0.2483715172649490 1.8218965463503538 141 119 69
-1.3458493105650364 -0.1888615413683742 1.1513531611612453 251 253 250
-1.0452041258101621 -0.3704385110245322 1.6025141526648123 188 168 105
-1.1859540921888254 0.2559657703484960 1.8192891907149671 150 124 73
-1.2735443003241012 0.2596476445389417 1.7998228878929405 133 102 56
-1.3968639093957678 -0.3474258233052893 1.4843720617682359 237 243 215
-1.1735809486077793 0.2689360946889764 1.8166645140595279 188 159 119
-1.0641366852885021 -0.3554886321264750 1.6092475279970020 125 93 36
-1.3348697768210611 0.2656192524076240 1.8118319771094207 177 168 127
-1.0517175149566365 -0.2092237392682630 1.6175339702906009 137 102 46
-1.0504087331255776 -0.2089765277865909 1.6147017587864989 135 103 44
-0.9385048686443810 -0.3224260932067987 1.5510530437881633 105 83 34
-1.4364527737789450 0.2687208830923865 1.7738293080237584 117 93 49
-1.1711668309764323 -0.3351571856487031 1.6428055581216832 196 197 155
-1.3076223018372262 0.2752949617963320 1.8062681580778746 177 149 102
-1.3074424836944505 0.2750362425844887 1.8065589036094527 177 149 102
-1.4346440235150693 -0.3177537552519973 1.4705148942037483 115 125 88
-1.1023375639774338 -0.1895988114427409 1.6229610062977344 130 101 43
-1.3774685840041194 0.2696283273116289 1.8132019950384792 76 75 55
-1.2502258972284148 0.2805644504115249 1.8346180034502990 120 88 47
-1.2904600590904995 -0.3127518908306793 1.5685585346604498 72 72 34
-1.3481112119508383 0.2825356828267765 1.8086651482730840 204 184 121
-1.4509070462856632 0.2788796919444151 1.7818078728546816 164 146 98
-1.0168484386668692 -0.3096523640197852 1.6055928508834192 128 109 33
-1.0168681303420297 -0.3105034640621552 1.6069133728374181 122 108 37
-1.3719402935328138 0.2801342467782617 1.8109990968857335 67 59 40
-1.2410489460575105 0.2897586160684545 1.8378889697905827 153 143 118
-1.0460694881508388 -0.3092094701110563 1.6194943003772484 212 189 121
-1.4141502383448095 0.2756730472630318 1.8112881753183843 74 69 37
-1.2904245570948705 -0.1784208339051362 1.6267984569183902 223 233 198
-1.2236057020485238 0.2996874517625098 1.8395954533100367 71 65 41
-1.3716592390907529 0.2959190045651612 1.8110093706003301 207 186 129
-1.0797796434138061 -0.2817686066822697 1.6222655713535357 127 96 68
-1.3871102333723722 0.3063094385348909 1.8123993762191291 149 127 67
-1.3869827709104277 0.3061277823174171 1.8125374973820063 148 127 62
-1.4014494821223613 0.3047063088801320 1.8160457295060313 217 198 132
-1.0429280399909528 -0.2629524154147088 1.6177373412283391 145 117 54
-1.0907845101268383 -0.1149972663950691 1.6003878381492966 125 94 47
-1.5221813314615433 0.2968105798202618 1.8022250838788751 105 77 27
-1.3519566800448575 0.3282602275500541 1.7945364200771123 156 141 102
-1.4610391556633038 -0.1205625140064567 1.5285233409666561 160 158 110
-1.3514880402666927 -0.4756622557291124 1.3329996743141284 203 212 195
-1.4484013715599753 0.3168602913779019 1.7845743106091991 91 91 81
-0.9623793711273473 -0.2280251499801774 1.5835958731124782 132 114 52
-1.0216686766788714 -0.4870323568822086 1.5628875548364449 108 80 33
-1.4245293638306749 0.5070252211812967 1.3592833027421891 221 230 177
-1.4193124459703885 -0.1069554183828856 1.5090791761504410 100 87 32
-1.2902352447662957 0.3299979339176785 1.8468780375882230 148 136 78
-0.9327766080709420 -0.0721318043464420 1.4960604271863356 163 148 79
-1.5106400154012209 -0.2174921991781410 1.5009689987106678 164 176 162
-1.4366590685656635 0.3501039750079312 1.7539832439665564 200 202 155
-1.2917401339305639 0.3427290737243490 1.8245896458235755 141 135 73
-1.2886722563769368 0.3362658088174450 1.8420877870680743 146 126 65
-1.3401986443370049 -0.1133832884301964 1.5782055309631342 177 177 125
-0.9362820985067694 -0.1957505823813030 1.5393843278396542 196 181 114
-1.3486444266559012 0.3609037761341063 1.7720900935469543 199 204 184
-0.9363585866507167 -0.1958916478401863 1.5399048885161910 186 171 112
-1.1665612734198707 -0.2191059080133195 1.6244124391027699 132 105 52
-1.4053778429540809 -0.1040253549484412 1.5232460613312424 118 118 56
-1.0913040224122241 -0.1955045755206586 1.6219208893783987 125 92 39
-1.2890548474735499 0.3440061364467875 1.8439445672288066 149 128 81
-1.2283485473575055 -0.1997873964568610 1.6370909932941660 225 234 187
-1.2830235851713112 0.3477624379763671 1.8515637207524764 175 152 102
-1.2713085624756284 0.3560821791097096 1.8536477951162971 136 110 73
-1.4019077051861801 0.3676373797361498 1.7853020730232942 116 106 70
-1.2682506367306763 0.3557865869314746 1.8616785092302246 105 75 37
-1.0478150687524281 0.4832887832496764 1.7478995150913947 109 115 79
-1.1305125622737771 -0.1813688473668897 1.6386545759361710 209 195 130
-1.1185854322857240 -0.0834095328630533 1.6620442550207322 90 77 24
-1.1247975370180139 -0.0710858774733348 1.6410151875118615 120 96 48
-0.9390177988239587 -0.3808399167942751 1.5384600873045413 125 98 43
-0.9990524323145535 -0.1586151868165756 1.5871764868127667 178 155 88
-1.2322368824743919 0.5499159131826952 1.6004871301246264 115 111 84
-1.4846245263679967 -0.1636285162690162 1.5073406954389772 135 148 128
-1.3382601684291315 -0.1700132871098210 1.5936112655008383 235 247 223
-1.1739152353820341 -0.3851156483763274 1.6242823280150660 211 215 182
-1.0616334190504917 -0.1593110150453227 1.6151373322275968 203 184 116
-1.4581550567342119 -0.1546843492971771 1.5011165185080413 52 60 49
-1.3396062414018703 -0.0552938816036402 1.5983709375674044 207 213 175
-1.4356184377017112 -0.1387908040574720 1.4900434855855889 155 158 129
-1.1202239690570046 -0.3306668805337925 1.6098896603906776 127 94 49
-0.9302773434046412 -0.0917373078243922 1.5046228366582370 144 126 80
-1.0377910295675326 -0.0381865152586721 1.7076845774516736 117 105 57
-1.0438456087934194 -0.0335074110989313 1.7301791844017695 97 89 43
-0.8638491725417851 0.5032794419921515 2.0232991041094261 140 118 104
-1.3726308543192871 -0.0205711678108502 1.6109952590350463 209 216 175
-1.3263944497023807 -0.1092317253116766 1.5876410921737310 159 166 112
-1.0355236740430009 -0.0124320691821136 1.7516569564256943 180 169 87
-1.4622872871591615 0.0040309504747955 1.6030734912119640 162 170 119
-1.4102619095647275 -0.0907711720052340 1.5195489112621845 187 192 134
-1.4887106081871921 0.6373200521348430 1.6636975463240125 113 114 80
-1.0577610658196852 -0.0834551632124630 1.6468578463190018 84 76 1
-1.0133101910300946 -0.2038196976784592 1.6072891315038511 180 159 80
-1.1828497476816797 -0.0841615094740071 1.6362268281439505 217 220 173
-1.5152457401406347 -0.2049143901085328 1.5033859675508612 160 175 156
-1.4216672569526545 0.0205313033125667 1.6307636581757574 108 116 67
-0.9556988029491985 -0.0376265919628074 1.5623461356754127 69 60 27
-1.2414714373881464 -0.0034034792403896 1.7846149961805242 124 120 75
-1.4648003950169313 -0.0602363510434331 1.5249896618179872 255 244 159
-1.3379222260300858 0.0244944092404024 1.6703891112960165 217 226 195
-1.0836085134698488 -0.0517403888527396 1.6820168827388062 94 91 58
-1.5704615214824051 -0.0340489818411024 1.4775079479430080 192 184 135
-1.4444566142364763 0.0402259478385420 1.6452330547443994 83 91 40
-0.7647676318332396 0.6263477204788471 2.0339539687167760 51 39 39
-1.1694765338011135 -0.0494483339935322 1.6696185709697413 144 136 87
-1.3905833695101091 0.6063976041789348 1.8386905015079460 74 55 38
-1.3386607332066502 -0.1318297078395983 1.5129078294543445 131 109 52
-1.4921396495696564 0.0591916392630018 1.5938851811883650 163 175 137
-1.3408637031844568 -0.0366754911497878 1.6110426612498865 228 236 199
-1.1682709404280436 -0.0412620228326240 1.7123108013213706 94 86 47
-1.2268068082057197 -0.0291685222239074 1.6629264074149945 160 168 119
-1.2952561575239265 -0.0291168027031409 1.6526508855856565 213 222 179
-1.0547956146307580 -0.0305319872683969 1.7436613854889447 122 104 54
-1.1838208146667197 0.6125376774019925 1.9853307337956969 113 100 92
-0.9453318606830637 0.9049321319959056 1.5846363634459277 127 114 105
-1.2636803986070484 -0.0209447263424072 1.6697464061949605 218 227 196
-1.5465039668531904 0.1054826939823849 1.5027084010804532 102 92 43
-1.1704168878064538 -0.1119469280192332 1.6397773153708124 121 108 55
-1.0431352860303762 -0.0184706819221887 1.7495624085551342 134 117 61
-1.4693347486342889 0.0803888139293532 1.6294213157490400 147 154 100
-1.4688343588900223 0.0802136587389985 1.6276443100402729 67 73 27
-1.3243932976039297 -0.0132038285895112 1.6530214313699800 182 192 158
-1.2112719158816485 -0.0207380057834189 1.7202880381370400 107 106 58
-1.1924784294621045 0.6144753896591342 2.0250445309780103 93 88 84
-1.3695356287337543 -0.0037539927915567 1.6139982962064956 232 240 199
-1.0687495425118008 -0.0180032274141869 1.7805221412368730 172 154 82
-1.0423692193338301 -0.0935692442701652 1.6113592634309339 44 28 3
-1.2203426582737480 -0.0180725744509800 1.7452273441442436 123 113 60
-1.2259193045065488 0.0021178078629380 1.6760694618186527 204 216 168
-1.0766594282143227 -0.0134264500332284 1.7869325119218977 185 167 85
-1.4390141030444421 0.0885942576244262 1.6650172574889530 182 180 121
-1.5249582407887012 -0.1016627901062204 1.5562559896610957 227 237 213
-0.9920866440502845 0.0315209790513674 1.6834424979579035 172 168 123
-1.2760400989950678 0.0617175954779688 1.8189339527978676 79 69 20
-1.0526842890971684 -0.0023469728981849 1.7878807105791388 185 167 81
-1.1740092014295016 -0.0965459029350473 1.6498930788824984 126 122 58
-1.1750795752040430 -0.0971300150746623 1.6528178724904212 157 153 90
-1.4828785511443721 0.6786563207933417 1.7354446800485237 159 161 150
-1.2199911485347741 -0.0116339946406832 1.7826098567246835 131 131 103
-0.8307423021965314 0.2051022445100733 1.5340215839778315 94 90 43
-1.2518770378149715 0.0720830129572877 1.8299607194927408 158 147 93
-1.0502922861541215 -0.0785850898159714 1.6457066316894402 107 94 26
-1.3355369195256961 0.0118809424694781 1.6610498361249904 245 251 213
-1.4534759374168236 0.0155873227509477 1.6177286716772670 88 94 46
-0.9988214640857417 0.0223983738390951 1.7379393156169474 103 95 56
-1.1967396239591497 0.0863612964781696 1.8126814941383211 215 187 140
-1.6305013083438125 -0.0734660907493616 1.5129575146720673 147 155 140
-1.6324281437659205 0.0898724500280516 1.3004219633235456 167 146 91
-0.9426810946003944 0.0519041061718324 1.6630933992083490 52 42 17
-1.2394918239926407 -0.0035354187599233 1.7700877902266519 190 191 147
-1.2734325018400017 -0.7082983902916361 1.3179065236167387 74 74 40
-1.3319580100097992 -0.7043122980218988 1.2504418660632521 206 207 141
-1.3318700835685251 -0.7043367162248845 1.2504744652427084 206 207 141
-1.2666854113450545 -0.6954178808393574 1.3146817581160355 184 187 158
-1.5427969171980329 0.0610618038252316 1.4839871990496709 91 65 28
-1.1879821318625809 0.0060216307827951 1.8006565652897508 231 226 186
-1.0551978854533515 0.0197404321277197 1.7960737821560815 125 105 32
-1.5298601527986830 -0.0616353562576966 1.5792492388602386 188 195 153
-0.9094431578892727 0.1962397329209238 1.6326335389333420 125 113 75
-1.1794728888875370 0.0118855224963974 1.8066313684342035 163 151 111
-1.2565739406828429 -0.6646149478341413 1.2947657758738433 130 141 124
-1.4858117439939056 0.0539427432914782 1.5884513808076268 69 80 40
-1.4307735880344554 0.0443711044737992 1.6527777855988206 200 199 151
-1.3105223184662207 0.0995527916053883 1.8382581583669353 202 192 143
-1.3081589333116515 0.0992322439781746 1.8427280735602283 115 100 61
-1.4860346595819589 0.0583275434713983 1.6018534293191924 206 216 164
-1.1000483929893503 -0.6202943017578468 1.4112839572247819 160 158 45
-1.2933631878875704 0.0539873452723355 1.6981775704221711 246 255 225
-1.4898871112400391 0.1622410998500311 1.6238325443830923 89 88 44
-1.3644671446552097 -0.5992626359591325 1.1507550908852220 38 38 10
-1.1757462526023255 0.0439120157655538 1.8333255061520353 122 111 49
-1.4862009030046188 0.0828212901091639 1.6099196556618045 131 134 87
-1.4421448469401226 0.0727036360030581 1.6638708559165876 134 128 54
-1.4168904952947241 0.1714527347234202 1.7539045107039313 73 70 27
-1.4179639139621465 0.1735087899220991 1.7557732102171957 205 202 149
-1.2455591290115020 0.1586356127005284 1.8650167103648640 110 115 83
-0.8966357344422599 0.2896560184840348 1.6279852644628476 203 190 120
-1.4884725715055205 0.2982710979300487 1.4532929570973838 206 218 194
-1.2644301675542404 0.1756034447629393 1.8817100580308750 185 172 127
-1.2092215980047525 0.1972211921785006 1.8509382059923882 188 165 113
-0.8201121017666336 0.3622439094941355 1.5463766117749957 109 92 40
-1.5203902522262946 0.0883168001485525 1.5472319067286731 185 194 165
-1.1706635162810117 0.0459320217875111 1.8316498553319922 203 193 131
-1.4198519720839649 0.0772529670647358 1.6470998437530031 197 201 151
-1.4754947136660632 0.0814579867982403 1.6228951188063780 123 132 77
-1.2137179658582002 0.2440321611805205 1.8295174288394245 163 144 86
-1.2135995792346750 0.2441985771813500 1.8290765570285192 167 147 88
-1.3479885345995004 0.2424000427838097 1.8101396461080079 141 113 65
-1.3658020503177197 0.2441058113927869 1.8032337044203803 120 91 49
-1.5131395693548846 0.1095395531414146 1.5798585136742103 150 160 133
-1.0974896771437355 0.0760437581099294 1.8370782317532133 104 93 47
-1.1847294619678306 0.2801560233495531 1.8231396456408913 140 118 69
-1.0291565968146665 0.1082242066495629 1.7690108377506240 143 124 65
-1.4361858933940306 0.2733379585612769 1.7732274186775006 149 128 75
-1.1983347775380215 0.0810957257287228 1.8093021917476821 141 108 55
-1.4452043325328412 0.1153339302270412 1.6609659417631097 144 147 90
-1.2693599308785124 0.2782272114557108 1.8359316652615396 169 146 102
-1.4382469622162726 0.2782936406801229 1.7762016045827940 72 63 24
-1.4513295513918922 0.1280121007005732 1.6589996416618114 131 131 67
-1.4349635568724251 0.2941699546506437 1.7776861427155675 44 36 13
-1.2960423837786665 0.3221546618292018 1.7766498768054653 131 110 57
-1.2018466435189188 0.3156666083307261 1.8353474224547308 191 166 109
-1.2366669250544260 0.3079112051679210 1.8425444667522193 180 164 112
-0.8853611531183901 0.2296948324342795 1.6118336552298131 206 200 80
-1.0746120032884410 0.1385307410810630 1.8220749883377776 91 76 43
-1.0688201478627248 0.4178017982197330 1.6601302705143235 180 188 139
-1.3360103160183547 0.3391683452690835 1.7801405009011122 42 38 26
-1.3863970838122814 0.4918657200072086 1.4558999072960486 235 244 213
-1.3594994525103765 0.3430157380600963 1.7868872556831319 108 90 42
-1.0347081068836570 0.4574422157713129 1.6473630741625265 131 117 70
-1.4952447782113012 0.3219758106522415 1.8007065675858862 196 168 105
-0.9990358182513588 0.2120424029708835 1.7671524444324711 134 118 66
-1.4087615357210865 0.1833134221836762 1.7603177054750803 187 167 106
-1.4667175069505054 0.1994464716458834 1.7380076168251177 173 165 118
-1.2455787890050665 0.2311898752450462 1.8242500222448510 149 126 72
-1.3862793703393326 0.2510397186532155 1.8016303220150829 148 136 84
-1.0721589776843277 0.2902171087384705 1.8447965811101050 57 49 28
-1.0690108429713541 0.3103266469573638 1.8493379961620404 223 202 147
-1.4203962946730266 0.2907987952030609 1.8026375166058912 81 69 29
-1.0353887345709702 0.4239255019662659 1.6620796721785365 143 129 80
-1.0023236042994157 0.4836554094384917 1.6357320941242446 87 69 33
-1.3106899041852458 0.5583140863901416 1.9262961544360595 98 102 67
-0.9922917280981408 0.8480953300578016 1.6486906888343853 109 92 84
-1.2110806321736300 -0.4858688604334640 1.4871113569360930 153 133 100
-1.2421352411769886 -0.4849445512670389 1.5050297089000579 46 25 6
-1.2616407564565244 -0.4811748357712702 1.4879261667791408 49 34 13
-1.5771646654617442 0.2296012894917847 1.3222658116960004 115 104 72
-1.5803362741918061 0.2103675142075576 1.3813312358977823 138 132 100
-1.3528605306434698 -0.6775104361233125 1.2180560545247743 87 84 67
-1.3391511711094324 0.1201360345611151 1.8446401480284902 177 156 109
-0.6389555632956387 0.6352817693416494 1.9580110947978324 157 167 158
-1.2736824860026847 -0.5295772606213937 1.4659233038652593 148 121 66
-1.2740320005347221 -0.5296356521522284 1.4667991765898167 146 116 62
-1.0012251853388789 0.2033051133113919 1.7772815399617390 196 188 125
-0.9999748206671267 0.2037138721488376 1.7748387626393147 168 158 97
-1.0109379355960608 -0.5328300657727763 1.5313385972030125 107 84 52
-1.3117159820773638 0.1345964569530649 1.8702480580812648 127 131 108
-1.1989418130973981 -0.4988828083839743 1.4808176828923649 141 121 94
-1.0866841688136957 -0.4968891800141786 1.5290251083744728 145 131 102
-1.2040264903203433 0.1682853835541220 1.8803256706481146 89 75 40
-1.1520016927584391 0.1943517460076055 1.8462532477806863 173 161 85
-1.5269341796436922 -0.1960469460873955 1.5079660049497334 171 182 168
-1.6183400742129732 -0.1838238700326113 1.4205303227080088 187 198 164
-0.9805342155397822 -0.1610930159963218 1.5697813469444621 123 92 45
-1.4993337741948702 -0.1561413886845457 1.5143598320320950 139 156 137
-1.1756685945510701 0.5995346528090533 2.0490822116047296 100 81 77
-1.2722886105294215 -0.1328160032439862 1.5714447133026201 206 189 143
-1.4094802934901722 -0.0949146357600827 1.5163068572428464 137 136 71
-1.4565822056307793 -0.0888700965258535 1.5236851371151277 76 69 17
-1.0685389718451195 -0.3203525840292305 1.6234721034186148 130 101 43
-0.9264093954021365 -0.0240546580059296 1.5304823663943274 137 130 88
-1.4644569889821779 -0.2901283395914450 1.4160754674696563 222 228 218
-1.2787739749102700 0.2935255699544414 1.8374127635575184 164 143 100
-0.9145366852867004 -0.2055015190530239 1.5290561042619597 111 97 52
-0.8973554569772184 0.0444879648682077 1.5509370012000077 155 143 91
-1.4197564485766854 0.3414459216431069 1.8032510138446816 151 141 82
-0.8535934601509413 0.0790595515743838 1.4876400544122883 62 63 45
-0.9880804529610857 -0.1889048140774069 1.5880563998507706 201 185 97
-0.9881726811870863 -0.1889359722268036 1.5887601301257777 201 185 97
-1.3713062823016806 -0.4627030498596075 1.2817286510973085 123 134 102
-1.0014446767462339 -0.1627417326285617 1.5861236135920589 108 86 36
-1.0006725505273892 -0.1553226980696510 1.5869736767692944 179 159 88
-1.0012158334585006 -0.1561082630946031 1.5879100015363961 168 144 80
-1.0172394416019703 -0.4406743274837684 1.5756722182237026 127 95 46
-1.0310428671082001 -0.1084359673097117 1.5891664564393015 182 163 95
-1.0837720824847994 -0.1086920038344765 1.6091739915122063 139 109 57
-1.6427039406880108 -0.1155088592061034 1.5007720769629864 97 99 88
-1.1460994524984141 -0.1066866850962907 1.6475207800223672 101 85 33
-1.5901711867768376 0.1780216229954854 1.3685512600838681 60 44 21
-1.3931405111214477 -0.0558672301369559 1.5489131676724688 145 154 101
-0.9882918205677563 -0.0324747820799749 1.6116724954488924 138 123 84
-0.9843966569559517 -0.0257299963794531 1.6210969530493271 138 125 81
-1.4883000532562181 -0.0379721583406656 1.5201777937247465 127 98 58
-1.3080305875522802 0.5556942312670597 1.9251041293525819 254 255 222
-1.1904688850723637 -0.0354434684294654 1.7170588874360846 114 110 65
-0.8496496608649626 0.2234852021137775 1.5681410850999682 104 92 52
-1.0942781922162326 -0.0348438578369467 1.7427425447089155 149 139 112
-1.2313521835824288 0.1060318147621800 1.8374428683837178 162 141 84
-1.2682054004302787 -0.1161708064243078 1.6186764169517323 193 193 131
-1.2467115969077447 0.0022186449528486 1.7895356451799909 105 108 65
-1.3555776483125832 -0.7613668378128479 1.1764400609076597 89 82 64
-1.2478523871183862 0.1265124920751592 1.8538874425868765 172 160 110
-1.2784915845868341 -0.1037083342690938 1.6102039733723188 148 158 108
-1.3456179140657314 0.0488477168758471 1.6693649421187333 171 178 137
-1.1707263929442244 0.1525882393603485 1.8458756002250136 172 162 100
-1.5477779342316929 0.3128586866773070 1.2845720152594848 157 135 86
-1.4863681660632861 0.0697200533451988 1.6036635940586634 203 207 148
-1.5476059431564677 0.3135520529945087 1.2843275102941147 160 139 84
-1.5014501525984618 0.0844135316465912 1.5804487835693350 226 231 190
-1.2599435243942052 0.0516731766124545 1.7986624229011123 105 101 53
-1.4387397118753980 0.4631811191658531 0.9399211519085880 251 254 233
-1.4843242824259797 0.1015124919735085 1.6154329332525601 177 186 143
-1.1747868397236347 0.1859555376386929 1.8654908678886453 179 165 104
-0.8667537048058802 0.1940366194913051 1.5799026480705052 76 71 29
-1.0095419557168781 -0.5336491463016169 1.5699304722733525 111 77 39
-1.2652283948126026 0.1834296934388036 1.8830992438930101 191 178 125
-1.3614216391947405 0.2132200432182426 1.7780651744382119 152 121 67
-1.0824132696617581 -0.0011874297608293 1.7822482537629933 235 221 158
-1.3744658885029259 0.2303377427677978 1.7714534934930386 191 168 118
-1.0415423804668895 0.2826841371503053 1.8091617038468020 132 118 81
-1.4323052752076275 0.2687142332961862 1.7723286751187355 123 96 51
-1.5316694429585307 0.1495330295029619 1.5456622876519159 193 202 157
-1.4254257234431689 0.3196579925645650 1.8062437426061788 138 123 64
-1.4096171855475821 0.1928355834949106 1.7550752969332857 132 104 56
-1.4588380081263839 0.2962031473158359 1.7891055314899036 81 73 54
-1.5018362934537859 0.2970411931924895 1.7988423191233467 150 113 68
-1.3286070045045322 0.5563196272360703 1.4423398672544301 154 167 139
-1.4833065740348055 0.5750000338656267 1.3921651997429230 87 89 78
-1.3600967195884979 -0.6588045797859710 1.1581865269965057 114 107 39
-0.8705569101611824 0.3127489890418891 1.6026880976856110 96 76 41
-0.9135945230354511 -0.5492015857124473 1.5333033273983465 124 107 64
-1.1217416857518945 0.2628420535254946 1.7913265211772447 135 103 64
-1.1680433553702425 0.2805451704824266 1.8165088262420361 190 179 125
-0.9826467964495229 -0.0458169593772507 1.5787930329758360 160 148 110
-1.4011882542430796 -0.3289488742399664 1.1445892458204823 60 60 58
-1.4607340852754669 -0.3134151219320661 1.3155272914647265 46 57 53
-1.2686322066121321 -0.3264601224553059 1.5911509539856525 135 136 79
-1.5118678938696632 -0.1441209584806754 1.5090026967376067 143 158 139
-1.2867631885010076 0.0712474949809563 1.8029172580335779 172 168 121
-1.3134749799993555 -0.1212025761817894 1.5785361285267294 106 94 46
-1.4692372539716432 0.1186566788988282 1.6461423601582559 84 83 37
-1.3744883926976696 0.1620427777424689 1.7022094705807240 220 232 208
-1.3027173298411681 -0.6699380842506371 1.3356620096654606 110 95 28
-1.3592079052535344 0.2192824246666213 1.8006405154175140 67 45 6
-0.8406117790637972 0.1918496300849238 1.5356769344150223 198 190 89
-1.5414704721414003 0.1388952887140614 1.5009172282201841 115 114 66
-0.7310339678755944 0.4935286537002567 1.3950917986649727 130 124 90
-1.3330854809412300 -0.0170537550070183 1.6389205261979216 152 161 116
-1.2994851039200124 0.0821078908485662 1.8079536739219462 178 170 134
-0.8671636164630793 0.2446890252650579 1.5925025183798800 118 100 60
-1.5769210891139813 0.2437578315315533 1.3600683366905575 109 90 48
-1.5741538346323607 0.0699282465704589 1.3519154691004074 90 81 48
-1.5568749915887328 0.1267612051458911 1.4733509299835530 180 170 109
-1.3315685632003977 0.1315217375082907 1.8648043665346798 76 72 61
-1.5604960302082955 0.3197914428911294 1.2842412841895900 129 85 46
-1.1873398835081597 0.1732244505796925 1.8698801087539740 89 81 42
-1.4740071829974222 0.3056912774101893 1.7975785001779223 175 151 87
-1.3627221076564398 0.5919770909976193 1.8743315818119346 133 132 86
-1.3375092701013569 -0.7086666416887633 1.2359006674467972 49 51 30
-1.5579315179847628 -0.1915112813000190 1.5648271168334473 210 220 211
-1.1190297095592452 -0.4108160602949353 1.5951066763138873 188 179 124
-1.4027513043685673 -0.4004312202119454 1.1663842313445922 169 181 167
-1.0202044957379359 0.1600122114415287 1.7780037340957262 197 187 125
-1.1105805670624105 -0.2958717836509036 1.6139153971858133 176 158 92
-1.5053511600673664 0.2466676796890254 1.7546529817874998 145 126 84
-1.4314152225773189 0.3387552341874200 1.7835809607845217 221 228 187
-1.5263582605001118 0.2153925085905689 1.4412759498489354 165 176 146
-1.4201565966710765 0.3004045215675531 1.8138527377178513 168 150 88
-0.9484789165832506 0.4803659552282106 1.6271391116142591 144 121 79
-1.2474001876458514 0.5421341709577411 1.7483088677932861 92 95 68
-1.2089501391342183 -0.1617024236070387 1.5919111624199178 196 201 169
-0.8221641851718139 0.3925822953695682 1.5299011552261046 144 136 89
-1.4903758075184528 0.5544839647254528 1.2699505485406541 43 36 30
-1.5896312881646510 0.2804904196603494 1.2982198850660058 151 129 80
-1.5886940411315105 0.2801442877217409 1.2933367488519327 181 169 119
-1.2242879847000463 -0.3880055976117097 1.5557568340573189 190 197 166
-1.3401173876488028 -0.7019941906845339 1.2348146817155605 89 84 28
-1.2728282527926726 -0.6976602048334001 1.2080123130338865 113 102 38
-1.2875674714063980 0.0994253787340808 1.8466147273684739 123 125 103
-1.1013002368914464 -0.1252515945175790 1.6245781344130004 135 122 88
-1.3581720253096170 -0.6303504487301615 1.1270672689250474 201 201 173
-1.3816674813833514 -0.1120903975760452 1.5396562603201800 196 197 137
-1.3583591265899604 -0.6574523891372109 1.1846505727211136 127 115 73
-1.8751575372132656 -0.1691657547015580 1.6380348037060448 94 103 48
-1.5711445413884959 0.3218421286974831 1.2915579630440659 157 125 74
-1.3342361433986367 -0.4505910789530537 1.4430681362461191 193 194 154
-1.6338876782976937 -0.0820596205481298 1.4947239762468703 121 127 101
-1.4593938536849387 -0.0033029353793217 1.5980567463650066 145 147 82
-1.3552073785024090 -0.2362251009533315 1.5641959657717244 215 221 173
-1.5681210870986215 -0.1898426411965146 1.5351414373581349 144 153 124
-1.6349751405284860 -0.1343894602482227 1.4888968509581872 136 147 130
-0.9764043220279817 1.0758081440002789 1.2223149069335275 86 77 72
-1.6382306240667883 -0.1326121284589591 1.4879439671983883 157 168 151
-1.6411621721430387 -0.1221644662781401 1.4874866872654120 114 126 104
-1.4527410503215257 0.6548867089977066 1.7636345815648733 207 205 193
-1.3029985966540867 -0.1457953907379536 1.5537519790893888 188 191 148
-1.6114747207164710 0.6881699913115391 1.5049169092728207 96 82 81
-1.6134171722417132 -0.1508855228952069 1.5666003056027666 109 123 97
-1.2627985429185720 -0.0880704709027588 1.5977965816854778 194 206 156
-1.2981629012320146 -0.7521919791436561 1.2761704404394874 149 144 78
-1.2419219155615429 0.0055307034016598 1.8002327484593514 155 140 81
-1.5667665722970179 0.0102640910656840 1.4534368346207502 130 98 47
-0.5109018649668182 1.2544969542160969 1.3035683537581921 153 152 147
-1.3458661639210452 0.7451503945852418 1.6674495360206736 156 146 136
-1.1167118781903933 1.0217871116446295 1.2059951831145528 65 45 46
-1.7147940750205390 0.5429167026000236 1.7945962092208667 74 64 55
-1.3833928478536768 0.1530377595003903 1.7596923394832789 106 99 45
-1.6379511605696242 -0.1844628729962103 1.4353062495798590 178 185 151
-1.2319406176542853 0.0659722143945612 1.8221818458704233 55 46 15
-1.4469313967982045 0.4817164674291686 0.9680361330497669 148 146 121
-1.9015911370990770 0.3114228434225312 1.5960566511748202 36 26 25
-1.1015032580694784 1.0164282305428503 1.2620396248617052 176 171 167
-1.1308358352508636 -0.5390976209888846 1.4771722083966428 111 111 75
-1.2568802412433557 -0.0682321482641386 1.1286594284597791 148 140 103
-1.3324124441363181 -0.5566594495264607 1.2014727792578206 212 195 27
-1.1095212907751804 -0.4125605119802920 1.6061851342073650 127 110 80
-1.2899776567625931 -0.0585837109008929 1.0828716854292264 24 18 18
-1.0717977915593921 -0.1229628163324254 1.6605161663421368 23 17 17
-1.0989251329247778 -0.1277615970284335 1.6720902959183150 29 23 23
-1.3668826825809703 -0.6728724162551241 1.1276592514225159 90 91 47
-1.1743707601746221 0.2212491335312685 1.0732150970979260 154 137 91
-1.3590804635266933 -0.6520523085161830 1.1500994950768813 103 99 52
-1.1161481788915109 0.2212749190397741 1.0566368450827539 151 142 83
-1.0034006746767099 -0.6080562445186626 1.1163531388265662 134 138 123
-1.5399260813666018 0.2185538166625076 1.1189102120649683 210 193 115
-1.3512487749950108 -0.5723368856407951 1.1750455200905481 187 176 70
-1.3518976190136363 -0.5726853449372267 1.1739658044536920 199 191 67
-1.1229006755256972 0.2240651768342576 1.0541455344526909 167 155 83
-1.3525844232584876 -0.5685486253513506 1.1876417760474751 204 193 78
-1.5646279249107180 -0.0940052168514848 1.4102670429609714 48 43 24
-1.3477416310263786 -0.5143533870639504 1.1666974227187092 136 143 91
-0.9230434161466160 -0.0989319313767348 1.2000667648763808 234 224 111
-0.7574979319240163 -0.4668281789476603 1.0522506523281754 178 182 168
-1.3574421776005106 0.2215859340278150 1.0495287256530057 62 55 37
-1.1992199232654690 1.0961532434465944 1.4519750668177371 91 62 58
-1.3930858334062888 -0.4066359341529984 1.2784714310847189 226 234 210
-1.2642382334062767 0.2378343119348784 1.0928681893471190 129 107 49
-1.2616563531732981 0.2382338526003072 1.0893228549179870 234 212 154
-1.2382312589953457 0.2384470566872729 1.0863346828674858 185 158 103
-1.4033558347610822 -0.3925425975158479 1.3307813083243638 181 191 167
-1.3899533663229204 -0.3870670048938113 1.3062087890619281 214 225 208
-1.1108245370242147 0.2447383352220631 1.0640991098219521 170 153 83
-1.1450919622391462 0.9646624155082516 1.1112735052853944 94 70 60
-1.3772204367931578 -0.3289313391249747 1.1295654941730739 218 224 186
-1.3008605586668660 0.2481892867943294 1.0892708694185318 196 171 115
-1.1193745732497637 -0.0860123599063767 1.1019190979595488 170 147 79
-1.3071964509142942 -0.3251964449894258 1.1188508492352016 106 83 29
-1.2955127680937690 0.7686783816623888 0.7214601290821562 75 48 37
-1.2855550987771875 0.2521993346599398 1.0918829589003487 195 169 120
-1.2214106757328742 0.2521709138426771 1.0747148771299486 200 179 122
-1.1865519330722565 0.2514818780321758 1.0594711335263236 233 220 124
-1.3487208594733784 -0.6925519554576062 1.1124522578746761 213 220 204
-1.2841389893843533 0.2556817843813077 1.0942255967077235 157 135 78
-1.0879219079422395 -0.3033640670011108 0.9261653839383944 239 250 236
-0.8954438782930036 -0.0840054884072833 1.2542619247069686 191 185 109
-1.0523508357928761 -0.2999392599187771 0.8853837096572459 171 179 166
-1.4404167840647977 -0.3354752933033301 1.4363917735444636 139 145 117
-1.2915627711953062 -0.3088132546549086 1.0805751978209945 252 239 186
-1.0796655664276578 -0.2984747038405791 0.9252622446708563 192 205 188
-1.3161331374904954 -0.5620729672593080 1.1271886683475474 200 202 93
-1.2896864164705628 -0.3041419339944743 1.0794264073388578 245 230 171
-1.5072443464614584 -0.0741268134385661 1.3577534515707732 177 173 136
-1.3161331374904954 -0.5620729672593080 1.1271886683475474 200 202 93
-1.2805298853040410 -0.3051719963375462 1.0850689950392898 176 161 106
-1.1416144618874999 0.2680993873974327 1.0579381507652224 168 155 76
-1.1433123644981797 0.2690971213747698 1.0606784171740353 214 202 120
-0.9407652016425718 0.2823742645000092 1.0962573850485478 160 150 65
-1.3100582385585346 -0.3007802642693065 1.1065773106823975 133 103 43
-1.3146920447259882 -0.0736324247362138 1.1963114032702482 196 185 140
-1.3543196877371959 -0.3013954820778600 1.1371435431340591 230 224 164
-1.3371990317240992 -0.5627114372643885 1.2362093636309412 138 137 91
-1.3425985722185168 -0.4835344662043016 1.1356910494508321 217 222 202
-1.0515557343313000 0.2857757955554618 1.0518086359813490 185 169 84
-1.1815324856630955 -0.2829216939895563 1.0127606981977773 163 156 104
-1.4919345694049440 -0.0678121260892935 1.3480172965424835 207 207 173
-1.2572802629730784 0.2871954942139141 1.0866653202157217 186 169 117
-1.4011521717491429 0.2931004118554857 1.1409742997639643 132 111 56
-1.2560259346413098 -0.0699080764742502 1.1254656562513152 145 127 65
-1.3239278071786507 -0.2705117823720507 1.1256846368968070 197 180 126
-1.4637558019135799 0.2972280831325380 1.1497287117669104 102 100 87
-1.2533087280220534 -0.0659750406173459 1.1239057515317532 200 179 112
-1.3107727329623504 -0.2578300258928806 1.1010145476435611 218 205 152
-1.2622513229389700 0.2986026817696636 1.0893225726970599 124 106 58
-1.2622390699669144 0.2987943300977025 1.0898278068647813 140 122 72
-1.1827095155340621 0.2978625973568878 1.0564381360304329 240 225 130
-1.1764774451792928 -0.0604522543819406 1.1001378953004719 140 117 49
-1.1430859493045660 0.3005932352082666 1.0591344512438747 175 159 97
-1.2017113331560063 -0.0590933097584205 1.1028865971452306 183 160 80
-0.7761958234208710 -0.3340256000784412 0.8476605381892239 181 186 146
-1.2550794371082699 -0.2480343424346081 1.0723772468001671 168 151 99
-1.4324609042865371 0.3106867242425269 1.1516602916393845 147 131 82
-1.3177454473873083 -0.2474913975047991 1.1057349062732225 134 115 59
-1.0825889416933572 -0.0553118603154077 1.1323394976950030 136 115 52
-1.1912533668028809 -0.2364006872128279 1.0418735324808828 182 165 77
-1.3261785750106674 -0.2354865558428358 1.1388218408161244 106 85 30
-1.1820238686174369 0.3176281645968837 1.0626794036436427 160 146 75
-1.4408239285585391 -0.2334041873661139 1.2492176639490742 107 117 90
-1.4801138626753010 0.3283700656288786 1.1667632420398144 184 170 121
-1.1697985305103513 -0.2284756990243578 1.0487794936443084 134 104 50
-1.1413114169444796 -0.2281068271551874 1.0542035562582570 247 229 191
-1.3692113023610999 -0.2269217166602005 1.1529598198811342 173 163 110
-1.3098275196876903 -0.0446195814896447 1.1944815528167321 74 55 15
-1.2711862056969510 -0.3025131984699216 1.0818840930182783 165 149 97
-1.4344039651516407 0.3382933101541254 1.1699303752275396 202 192 157
-1.4519038275657565 0.3436083071666843 1.1689988452211517 225 220 188
-1.2651282701299966 -0.2898014905081545 1.0773989777409125 126 108 60
-1.2654196341843984 -0.2899237849988779 1.0777071582053770 126 108 60
-1.3904394611610043 -0.0364358833786901 1.2443924950673868 90 95 55
-0.9609252739411828 -0.0341321228676285 1.2668813928280340 147 138 83
-1.3485098597452743 -0.2662198086968572 1.1378240591492106 154 147 92
-1.3397219804120211 -0.2057765130026432 1.1409857348300976 157 141 79
-1.2436047930316134 -0.0376033134242960 1.1236729466513995 138 130 47
-1.4577964663034182 -0.2050379915010760 1.2904471561926729 218 230 208
-1.2392200122799528 0.3601733522729405 1.0875042333113702 116 97 54
-1.1768472682898272 -0.2532718867605126 1.0400146378462323 188 166 106
-1.2359507722384406 0.3596998205635648 1.0846365309151034 194 176 130
-1.0889213502707751 0.3617913862015273 1.0577699501797355 228 211 141
-1.1643125197221187 -0.1978489198140067 1.0493849954832852 176 151 84
-1.0927415109136578 0.3663824937399335 1.0583069304584809 236 217 149
-1.2945790093204839 -0.0272131290392620 1.1411904599826763 248 235 183
-1.2982372257293042 -0.1882833177082417 1.1053795540141975 138 114 52
-1.2925347614017852 0.3765246576883871 1.1172569942190924 140 123 69
-1.5235433179792637 -0.1952998884068607 1.4604766760375014 166 173 165
-1.2568517224300351 -0.0238008753585686 1.1210530793490885 193 183 121
-1.2525192856362430 -0.2363619748290538 1.0666698319268177 172 145 102
-1.2036384745786932 0.3694735839129625 1.0614404741862180 229 214 129
-1.1389748943061981 0.3785624622326894 1.0571528619087238 249 232 163
-1.1692303070893497 0.3860073440509211 1.0722009451745935 144 122 72
-1.1692303070893497 0.3860073440509211 1.0722009451745935 144 122 72
-1.4595196351178932 -0.2424323582645339 1.3619907777369480 162 176 153
-1.2677634056166320 -0.1782805744666655 1.0822669825344664 225 206 150
-1.5107155369944005 -0.0088952358827086 1.2699831626464708 134 128 92
-1.1621817945548045 0.3922242197591707 1.0719232458252681 129 108 51
-1.3743791261473537 -0.1708096798466444 1.1807549279942866 166 154 104
-1.0952119180496582 0.3973797488047600 1.0468106796386984 188 172 84
-1.0665645861885842 0.4082634835641386 1.0597435410381377 156 136 65
-1.2195868766275746 0.4098086352396076 1.0848514572686252 173 157 95
-1.4528155866663859 -0.1643283366846712 1.2786510736145895 229 243 220
-1.0817419795068317 0.4124883738037063 1.0555814728369466 135 115 46
-1.2738763395708976 -0.2065757945070777 1.0746909570309835 236 220 142
-1.0688901977479759 0.4159787162560313 1.0616678005264362 138 115 48
-1.1958748471824727 -0.1471526063841267 1.0678892259890209 158 132 75
-1.2567949189630139 0.0076740722432184 1.1384949752427318 194 178 118
-1.1663096384662583 -0.1462427459472963 1.0663751762616689 179 155 85
-1.4482749474548078 0.0178829920552500 1.3224324199003206 212 220 183
-1.2117746590134257 -0.1986083631473746 1.0596010535576743 240 222 148
-1.1346513550290624 0.4156498587058982 1.0538344956957484 204 190 117
-1.3496127387826218 -0.1413716265773791 1.1837802136831423 150 134 85
-1.1327155094523220 0.4201108462700622 1.0508506616602151 211 196 111
-1.2970742246225953 0.4298022710465729 1.1263381140682209 241 228 183
-1.6265211239449429 0.0241130067060546 1.2761295587093853 179 170 93
-1.4421175571612286 -0.1951103610334673 1.2122749229664911 208 220 198
-1.1992333157829527 0.4264508359866574 1.0877446695090551 139 120 61
-1.6319035631412671 0.0286881673501377 1.2717607098583172 167 163 89
-1.1830213021167779 0.4370955223339135 1.0880285788198103 137 118 52
-1.2379431188128611 -0.1283561972622289 1.0944784921052271 136 115 52
-1.2681203963632350 -0.1194390154303284 1.1167375372081969 144 125 69
-1.1746836640503324 0.4338995003456675 1.0679495955137766 163 146 74
-1.0846701996681649 0.4370284727515683 1.0525954695602067 184 167 95
-1.5927541275709227 0.0298143887863049 1.2484175509432769 131 121 62
-1.0208639043565173 0.4433169966282277 1.0478781293615491 235 220 125
-1.1730278767152114 0.4443929359430664 1.0748746561216138 151 134 64
-1.6304964630773928 0.0321641640891477 1.2719150921538878 140 129 49
-1.0804367136668986 0.4487681080706554 1.0469173903556770 230 211 142
-1.2353405362832324 -0.1886454202242927 1.0729599024834202 180 152 105
-1.2383935717083610 -0.1862744472315480 1.0726282669958433 135 107 59
-1.3521747360947458 -0.1058252814832153 1.2346404511563480 152 148 84
-1.5793878541136581 0.0358214768367084 1.2266443240981764 55 46 17
-1.3430669075313608 -0.1060761010897916 1.1829412472421601 208 190 140
-0.9492821091695975 0.4643557616846192 1.0609690598280024 229 213 126
-1.3444393970963029 -0.0966762500702070 1.1932103335402409 211 205 155
-1.2479890637580662 -0.0897977960949484 1.1095310780131133 220 203 134
-1.1572648505777421 -0.0897983763656003 1.0906482775347017 138 118 55
-1.3946581426943134 -0.0852510689032786 1.3617829526941625 111 125 92
-1.3316812367701063 -0.1768251461811136 1.1391037499139434 148 129 70
-1.3172324248561571 -0.0872264304166342 1.1625131453101611 146 134 84
-1.2475852562677352 -0.0843748604074209 1.1189517984913662 206 181 117
-1.2477851285300834 -0.0843032529325345 1.1184717879475843 206 181 117
-1.3566747768498926 -0.0813201743848587 1.2410464377398680 165 167 130
-1.3345132970361686 -0.1735134830218814 1.1419102391052789 195 171 111
-1.0387859882096251 -0.0837719649343179 1.1103707540233922 239 216 136
-1.5588295078248713 -0.0713151723221661 1.4007468710200806 216 207 166
-1.3522779432811642 0.0403190260629003 1.1089373248792531 52 47 25
-1.2115775828758482 -0.0740960365301812 1.1018089202446790 172 151 88
-1.2647723959570774 -0.0691075221045053 1.1301164221108304 189 173 113
-1.3250116371663307 0.0463719599545488 1.1079393998647933 50 38 0
-1.5401979798240761 -0.1668567989969845 1.4201430076939536 83 87 54
-1.3038888044557226 -0.0614832274803261 1.1862807532866140 140 129 84
-1.1546938694988778 -0.1596381943831556 1.0608783160594315 138 107 60
-1.0983371510193327 0.4826923233571342 1.0727778818948792 87 65 26
-1.5164223475374103 0.0509622070491214 1.1225438896961306 93 81 39
-1.5018497894527703 -0.1617866878242121 1.4483317317581395 147 160 142
-1.4510517483601182 0.0549640320224178 1.1235642503358014 163 160 119
-1.1333182865604445 0.4891127583836156 1.0680656135507991 219 201 129
-1.4506897837925279 -0.1567398670307556 1.2731248184495114 223 234 218
-1.0709538076835574 0.4928588394849221 1.0577028393979437 225 204 139
-1.4581556356973013 0.0593378822206446 1.1160201310760400 90 93 66
-1.3137258459211982 -0.0420815794762479 1.1634178402874797 137 126 80
-1.5731062371872262 -0.1510188978641688 1.4155337793999752 188 180 133
-1.3288195658400561 0.0603476735024678 1.1018200315438795 180 176 115
-1.2353527558274129 -0.0429008549549581 1.1139189836813554 129 114 45
-1.6311725568579707 0.0712084634610282 1.2672049668619325 145 133 51
-1.1142366816001839 -0.1495739698700631 1.0802684980406294 149 124 57
-1.6059228061689064 0.0710368108831052 1.2468258503076284 174 156 92
-1.1496091127940704 -0.0346186693563147 1.1238449369627888 182 158 96
-1.1191999800528865 -0.1404528999827475 1.0794531590267467 137 111 52
-1.2443555012849097 -0.0336807204707470 1.1223353930808342 151 143 60
-1.6086580875154752 0.0737948413069647 1.2499943408924450 155 128 49
-1.4873816737335681 0.0676064474494479 1.1091380201196128 146 140 106
-1.1493279936874103 0.5165480307559006 1.0898965546758190 198 177 122
-1.4610098678253145 0.0724947577135514 1.1095657443122564 108 108 80
-1.2378138340205009 -0.0313413352617747 1.1115443681741530 163 155 72
-1.2073848476169295 0.5254266278021011 1.1294764994497648 126 106 53
-1.2070511448045840 0.5266485649320803 1.1306305144335738 149 130 71
-1.4055058648958560 0.4644632985019185 0.9307513978246662 29 30 22
-1.3740634653863786 -0.0252578650341079 1.2099289481551359 159 168 137
-1.1436264316033857 0.5252692104288640 1.0834506933555497 160 141 75
-1.4716016033512578 0.0781115635897068 1.1030532779001136 119 119 91
-1.0615208967415435 -0.0195231352333802 1.1411588988240036 90 70 11
-1.3412472511236810 -0.0161626594085599 1.1869391003588308 139 124 81
-1.0800581217381111 -0.1196082492654691 1.0754773830820987 209 191 83
-1.3537989557944914 -0.0154425536292887 1.1912308552242352 116 111 73
-1.6173070095299988 0.0949544937700894 1.2804829366646502 44 35 18
-1.0816613943118223 0.5691463262428176 1.0915504769823099 156 135 72
-1.3609461011856196 0.4883095284298400 0.8810770871596134 236 242 214
-1.5708596786940838 -0.0009681855174551 1.2928248272849194 151 147 112
-1.1753755515575419 -0.1029756899844934 1.0961443292029882 141 116 62
-1.0598375930715567 0.5761182207783471 1.0834542312654334 227 207 136
-1.1321068436494059 0.0932461184216335 1.1015104178032169 187 165 118
-1.4453943373218980 0.0913120671716623 1.1067228330828596 213 211 162
-0.9910496938161223 0.5889505393939090 1.0808402108672264 200 190 121
-1.1943181736786452 0.0956685721689899 1.0959297201820755 150 128 68
-1.0227769072453035 0.5889469522797428 1.0835647782533708 177 164 96
-1.4400785330079644 -0.0845162379434446 1.3971070856943668 114 121 79
-0.9857507988507296 0.5954726464451641 1.0904848928680304 79 70 27
-1.3229614897414237 -0.0009476157598453 1.1587398335697117 181 176 134
-1.1869096548262326 -0.0015122520920831 1.1299034365239853 220 203 134
-1.1774204612649686 -0.0894270070312938 1.1031655425717197 146 120 61
-1.1045295441052467 0.4590729028314955 0.6646984996672443 116 118 69
-1.5004043779140430 -0.0838676834431293 1.3700499017777763 167 168 126
-1.2073599990805033 0.0043181958272135 1.1473783369509607 129 113 35
-1.2112897885736811 0.0042546925274306 1.1317047894687562 145 127 51
-1.0156611274341356 0.0071309353452572 1.1675261402887562 111 100 46
-1.6079115104374371 0.0112712089154337 1.2741018565167461 158 153 87
-1.1372749461209355 0.0093807490013732 1.1255996658535987 220 201 132
-1.3135606892924738 0.0110789342398687 1.1664222611848944 126 122 77
-1.3339647662594658 0.0103180844173078 1.1438049171029392 207 202 160
-1.5637343057574020 0.6174678913238885 0.9982954838821685 86 72 72
-1.4122969076534817 0.0175312953906301 1.2547659178300228 205 213 174
-1.2539325472147744 0.6222053855352886 0.9272655159598966 160 154 128
-1.4888984189446233 0.6105520968851749 0.9201214226041937 43 40 21
-1.1559259115509020 0.0244216394230823 1.1318097508094280 147 128 72
-1.1725541637498054 -0.0801148744643309 1.1033517075158248 176 155 102
-1.3776566474817495 0.0257198535027168 1.1175176836695806 161 160 112
-1.3033005446341512 0.6221031685429426 0.8676434753965520 171 162 105
-1.3826527778248363 0.0285979438478933 1.1105464226006789 173 172 126
-1.3878184739428441 0.6108152196737032 0.8456301267867957 89 90 56
-1.5846300365998975 0.0355496741845545 1.2325982405439317 96 84 44
-1.1217284237389478 0.1068730429487802 1.0959187827449663 198 180 134
-1.3885002427178490 -0.0655351617100541 1.3099262058137786 213 224 194
-1.1638403862386819 0.1077009976060350 1.0803099932257123 153 135 69
-1.4022998093077426 0.1044642067388812 1.0625225120982531 175 158 106
-1.5793420729835237 0.0501162001603061 1.2162343555877084 185 177 104
-0.9872225554322707 0.0532505584311393 1.1593409241956065 224 209 142
-1.4413633588521977 0.6233079100518757 0.8538233454238765 95 96 56
-1.1322877153996553 -0.0619097755632574 1.1025103216056162 182 163 71
-1.1949256859637716 0.1147658391233152 1.0950308476216137 116 98 60
-1.3826367644354520 0.0507325912377543 1.0861614919765716 156 143 88
-1.4807702143542141 -0.0432805381856898 1.3258044520635173 199 197 148
-1.4202036291396882 0.6292251064539394 0.8336465852357532 86 80 64
-1.4918044388156411 0.6327267900763648 0.8436167424281478 180 146 144
-1.3734217288181902 0.6330138651757248 0.7932253736305765 77 66 62
-1.6232307477184786 0.0686340678472548 1.2603229775823996 162 145 65
-1.4881582869696826 -0.0379791648121411 1.3138709036476277 148 140 91
-1.6053470799734861 0.0674436450682380 1.2423554670816208 131 113 51
-1.5730201390912637 0.0653749521867795 1.2005396074609256 174 158 107
-1.4881999480918704 -0.0381749908601420 1.3104738819752719 146 139 93
-1.4196452680311078 0.1104934396905453 1.0674772005187207 144 128 66
-1.4627052976640251 0.0614295156266273 1.1142086639491189 98 98 72
-1.2390971401352113 0.1179421502474844 1.0899781729464799 163 146 76
-1.2131435686859060 0.0693797655817910 1.0961155274727743 187 177 92
-1.2141630349377854 -0.0356413536659935 1.1108195634626443 210 191 114
-1.2674826045494243 0.0821665631977975 1.0929603338056797 236 224 142
-1.3852430819303529 0.0800665754090650 1.0715986779405478 214 201 149
-1.0475241633803638 0.0942757004180244 1.1085125700230467 176 161 106
-1.3041757982269118 0.1264291009121319 1.0794591007202348 171 160 106
-1.4943550605316260 1.0622577704961864 1.6057504230955861 103 77 76
-1.5400836984392579 0.1245907184678054 1.0939320371476511 153 144 69
